# .PCD v0.7 - Point Cloud Data file format
VERSION 0.7
FIELDS x y z
SIZE 4 4 4
TYPE F F F
COUNT 1 1 1
WIDTH 300
HEIGHT 1
VIEWPOINT 0 0 0 1 0 0 0
POINTS 300
DATA ascii
-0.088146769 0.12440126 -0.0011540971
-0.088185318 0.13418579 -0.00062325521
-0.088120133 0.12634745 0.0044991905
-0.088158287 0.13320638 0.0042518047
-0.08782015 0.12648016 0.019061845
-0.078185514 0.14543466 -0.015463651
-0.078761511 0.14993282 -0.010497948
-0.07797765 0.072908595 -0.0011068716
-0.078295015 0.073889643 0.00033078925
-0.078722581 0.15312681 -0.0025427958
-0.078881532 0.15343037 0.00073869328
-0.078316212 0.075868249 0.0071712211
-0.078716695 0.10273775 0.012950136
-0.078753784 0.10574653 0.012168825
-0.078838035 0.15208343 0.01049052
-0.07847701 0.15325056 0.0055886586
-0.078237191 0.080358729 0.014113467
-0.078496829 0.088497952 0.015511218
-0.078399599 0.097821735 0.014999284
-0.078730375 0.10819545 0.017055687
-0.078956231 0.14768983 0.019818263
-0.0789015 0.10982801 0.028043902
-0.078820094 0.11641382 0.03263608
-0.079084992 0.1372911 0.030654807
-0.078724682 0.14373849 0.025127342
-0.078735255 0.12075128 0.034326293
-0.078957506 0.12756237 0.035533164
-0.06912899 0.17376728 -0.065072469
-0.06853652 0.17047186 -0.065503657
-0.069094859 0.17717902 -0.067328945
-0.068576276 0.17691545 -0.065902539
-0.069181427 0.17109525 -0.05543552
-0.068716735 0.17068222 -0.055227298
-0.068819121 0.167062 -0.046351191
-0.069285929 0.16408715 -0.037227932
-0.068874687 0.16332214 -0.035834495
-0.069187008 0.16549537 -0.040796936
-0.068677239 0.16527663 -0.040686157
-0.069337681 0.15871878 -0.026373778
-0.068733908 0.15849705 -0.026136393
-0.069400057 0.1512254 -0.012848233
-0.068841137 0.15311933 -0.01683805
-0.069024399 0.15491459 -0.019772828
-0.069334798 0.14987832 -0.0076633818
-0.068996921 0.14974214 -0.0068981028
-0.068814024 0.056221485 0.0037749175
-0.068497293 0.055766568 0.0010739533
-0.069488041 0.14999101 0.0026403598
-0.069004714 0.14997406 0.0036156212
-0.068917282 0.058917392 0.0098032681
-0.06852363 0.059106678 0.010899487
-0.069602907 0.14826052 0.01748566
-0.069329977 0.14927351 0.013418943
-0.069023371 0.061700642 0.015952265
-0.068358056 0.062113993 0.017344298
-0.069197677 0.066500932 0.02223647
-0.068524569 0.067417324 0.023038005
-0.069409713 0.094678126 0.026477629
-0.068890333 0.099798366 0.024877835
-0.069373228 0.10289703 0.026234569
-0.068883725 0.10302355 0.026204407
-0.06906639 0.14257255 0.027627466
-0.069684453 0.14564708 0.022752926
-0.069128796 0.14511995 0.024133692
-0.069278829 0.078507558 0.028220162
-0.068671629 0.07755664 0.028156953
-0.069317214 0.092436746 0.027446058
-0.06882406 0.086876161 0.028603619
-0.06943211 0.093429551 0.027014745
-0.06943509 0.10458647 0.033117529
-0.069000833 0.10467093 0.032141373
-0.069631942 0.12832247 0.036130093
-0.069045641 0.12666374 0.036135685
-0.069587074 0.13771901 0.031741973
-0.06923636 0.1373482 0.0316181
-0.069551714 0.10673384 0.037518207
-0.068985254 0.10832777 0.038447622
-0.069475695 0.11773796 0.04017007
-0.069020122 0.11648864 0.03995727
-0.058593355 0.13574974 -0.011100187
-0.058657102 0.14505659 -0.0086269854
-0.058765944 0.14875832 -0.0037899825
-0.058586452 0.1507604 -0.003871952
-0.057920206 0.025443688 0.0041845101
-0.058095597 0.033222441 0.0074264617
-0.058128711 0.050170783 0.0076509868
-0.058855984 0.14741263 0.0063894824
-0.058128625 0.025577975 0.014761035
-0.057997782 0.035940345 0.013590417
-0.058209624 0.052563246 0.014561221
-0.05866085 0.14573503 0.01783099
-0.058155783 0.025574014 0.023828123
-0.058128443 0.038818859 0.024329277
-0.058518417 0.05807225 0.024773546
-0.058294773 0.061171886 0.027910603
-0.058607984 0.098299332 0.030148534
-0.058639023 0.1033082 0.027560383
-0.058441173 0.11535884 0.030490223
-0.058699451 0.12417764 0.027606573
-0.058758307 0.1344813 0.02406715
-0.058751825 0.14190817 0.023924574
-0.058206208 0.026215531 0.031600997
-0.058352619 0.032250419 0.033989821
-0.058154613 0.066842869 0.032049164
-0.058371998 0.073552214 0.033821497
-0.058404412 0.084731072 0.034248862
-0.05848508 0.094040431 0.032292791
-0.058611907 0.11511405 0.031389765
-0.047258399 0.16216902 -0.0061412635
-0.047321655 0.14954565 0.0026018177
-0.047368787 0.15850103 -0.0011093728
-0.047167014 0.12393978 0.012664518
-0.046127342 0.026183952 0.020003514
-0.047149606 0.11145653 0.022659278
-0.047118083 0.11801084 0.018282002
-0.047149215 0.12282857 0.0151914
-0.046541914 0.026426001 0.026097883
-0.0467733 0.039717335 0.031136446
-0.046597049 0.04661392 0.029961869
-0.046787329 0.055145487 0.030844916
-0.046842217 0.10068415 0.032303296
-0.046995714 0.10653903 0.02734087
-0.046558786 0.028512349 0.034426358
-0.046513088 0.034361128 0.034684703
-0.046507239 0.060505491 0.032834519
-0.046842534 0.066198021 0.034348417
-0.046935365 0.076586463 0.036566716
-0.046992347 0.086211801 0.036080237
-0.047056817 0.095056012 0.034685858
-0.034786724 0.17182615 -0.015203439
-0.034783714 0.173039 -0.01326953
-0.034609172 0.14809784 -0.0073422729
-0.034670897 0.16042842 -0.0069327359
-0.034578186 0.16760108 -0.0055015869
-0.034662891 0.17317437 -0.010643784
-0.034447204 0.15051712 -0.0023216435
-0.034375958 0.15500417 -0.0020217311
-0.033696063 0.028791426 0.0094344914
-0.034494497 0.1206851 0.014612586
-0.033767298 0.029035892 0.018473729
-0.034254156 0.11735424 0.020440508
-0.033911653 0.029461866 0.026345704
-0.03383958 0.048480444 0.031670779
-0.033852056 0.054990739 0.032757584
-0.033896971 0.10036268 0.034369394
-0.034017395 0.10709978 0.030148059
-0.033954177 0.11230292 0.02650978
-0.033629771 0.029887049 0.040019844
-0.033777211 0.036721732 0.040433202
-0.033787947 0.042472322 0.03467419
-0.034129556 0.060254745 0.034252949
-0.033937618 0.065312751 0.035127949
-0.034213122 0.077138126 0.036509782
-0.033911534 0.086019494 0.038713649
-0.034033619 0.095081635 0.03705164
-0.033447374 0.032582309 0.042995542
-0.021030091 0.18011177 -0.024323149
-0.020828435 0.18209112 -0.023658866
-0.021119568 0.15908027 -0.016309856
-0.021017453 0.16750465 -0.016799184
-0.021095058 0.17776464 -0.016920503
-0.021146968 0.18366024 -0.018628001
-0.020970222 0.15779899 -0.0084348759
-0.021198645 0.16278635 -0.011795565
-0.019767646 0.036345407 0.0090064304
-0.020362169 0.12453004 0.013760448
-0.019777026 0.036263224 0.01805073
-0.020320935 0.12001156 0.024211124
-0.020532729 0.12196872 0.01968715
-0.019839428 0.036563147 0.027278576
-0.02047151 0.10908489 0.034485918
-0.020397531 0.11572447 0.029270273
-0.01986799 0.032258864 0.040231958
-0.019839728 0.047767162 0.039921939
-0.019972106 0.055119123 0.039038718
-0.020291613 0.063521206 0.041479237
-0.020241817 0.094962582 0.040831041
-0.020239616 0.10449638 0.036830191
-0.019727943 0.037146367 0.047035765
-0.019800315 0.043014791 0.045699697
-0.020066468 0.067659482 0.044639327
-0.020015134 0.076149441 0.049153674
-0.020138463 0.086048745 0.048695553
-0.020424789 0.090817362 0.045254409
-0.0076011131 0.16941607 -0.028242426
-0.0070907855 0.1697876 -0.027841415
-0.0075928131 0.17742905 -0.029466949
-0.0071413503 0.17530671 -0.028623311
-0.0075324355 0.16907617 -0.024397412
-0.0072408346 0.16897334 -0.024340596
-0.006071581 0.039491512 0.0082602398
-0.0068190885 0.13099663 0.011892919
-0.0065067154 0.1312138 0.010543937
-0.0066730585 0.13126206 0.0097982483
-0.0063442043 0.039504483 0.018854538
-0.0059512588 0.039460447 0.013861431
-0.0068923789 0.13047181 0.014922128
-0.0062584844 0.12887657 0.019294176
-0.00626816 0.039758589 0.024566073
-0.0058204294 0.039855801 0.025868986
-0.006675439 0.11708882 0.032792754
-0.0060808752 0.1186408 0.031955071
-0.0066678864 0.12121277 0.030084657
-0.0062469449 0.12353583 0.027806345
-0.0060941717 0.035312124 0.037626013
-0.0055504711 0.036795001 0.039783426
-0.0061387708 0.045842491 0.04101428
-0.0056635248 0.045055941 0.040865954
-0.0065290965 0.099806868 0.041976135
-0.0060486156 0.10001503 0.041797489
-0.0064872685 0.10290778 0.037279125
-0.0060421871 0.10515392 0.03714801
-0.0065467153 0.11187155 0.035577945
-0.005986094 0.11324196 0.03496087
-0.0056900913 0.049848802 0.042132489
-0.0061560664 0.056951802 0.045683939
-0.0056277486 0.054366767 0.044462584
-0.0056692101 0.065981448 0.047956057
-0.0061972355 0.072059058 0.049101278
-0.0057488675 0.07447122 0.049643021
-0.0063148499 0.085403875 0.050266083
-0.0057669259 0.085481569 0.050317053
-0.0063230051 0.096385106 0.046467341
-0.005835834 0.095987566 0.046686523
0.0073555238 0.037372712 0.005121897
0.006598698 0.13418466 0.0084943408
0.0075308308 0.040384222 0.013371291
0.0068979287 0.13222922 0.015730223
0.0075735501 0.040540136 0.02319929
0.0071643316 0.12226225 0.027846245
0.0070950091 0.12779199 0.022810096
0.0077533247 0.039674494 0.034417719
0.0076010833 0.04772095 0.036672127
0.0073308367 0.10229625 0.03764113
0.007289737 0.10918054 0.033066355
0.0072262678 0.11695454 0.031213179
0.0077330424 0.05138959 0.040500615
0.00785123 0.058776345 0.043608941
0.0078101358 0.069037497 0.045880567
0.0076374998 0.079170875 0.046452515
0.0076693147 0.089901462 0.046399824
0.0075408099 0.09718626 0.043760501
0.018912742 0.13242401 0.0037443491
0.019636625 0.037576251 0.011018875
0.019042939 0.13051131 0.011366173
0.019792799 0.037533719 0.019733761
0.019410249 0.11824661 0.023430388
0.019111056 0.12550393 0.018816663
0.019767568 0.039862555 0.028487515
0.019785976 0.048519589 0.030162677
0.019918466 0.056624379 0.03414214
0.019616639 0.10016844 0.034311391
0.019387385 0.1074739 0.030282581
0.019734535 0.060439598 0.035667572
0.019846054 0.067412317 0.037383396
0.019890122 0.077356808 0.039335243
0.019689811 0.087446816 0.038592964
0.019570857 0.094596133 0.03741397
0.029721495 0.036314916 -0.0029635285
0.029092418 0.12438319 -0.00061240594
0.029764652 0.038444992 0.0060559851
0.029218977 0.12234786 0.0068463786
0.02973008 0.043485351 0.015881753
0.029966772 0.050947327 0.019849421
0.02963233 0.105409 0.020927353
0.02948403 0.11129089 0.018091902
0.029439194 0.11797776 0.013107824
0.030143037 0.054975793 0.021822577
0.030020321 0.060229272 0.024549389
0.029909004 0.071477219 0.025671806
0.029805163 0.080944799 0.028261119
0.029877651 0.091268562 0.027476884
0.029687691 0.10092634 0.023812044
0.037988782 0.037167173 -0.0064711808
0.03747486 0.10803867 -0.0049521066
0.038187589 0.040446654 0.003211909
0.037761554 0.10207909 0.005383756
0.037532784 0.10651995 0.00035130882
0.038080022 0.043915525 0.007695436
0.03807861 0.050334305 0.0089234691
0.038062643 0.060312513 0.010630564
0.037983634 0.07031054 0.012465926
0.037883315 0.079527512 0.01303704
0.037840243 0.090343319 0.012031196
0.037613988 0.09692093 0.0091504734
0.044398978 0.040241946 -0.010366268
0.044840891 0.040592298 -0.010139377
0.044125799 0.069177344 -0.0095777074
0.044619754 0.069361672 -0.0089755999
0.044471119 0.04292291 -0.0022079726
0.04495002 0.043428648 -0.0019468646
0.044525076 0.048615564 0.0031864836
0.045093484 0.048550073 0.0027125354
0.044409081 0.061483108 0.0023728614
0.044921279 0.062787771 0.0014126635
0.044310153 0.066322066 -0.0017227033
0.044689588 0.067520581 -0.0036778396
0.044491455 0.055268552 0.0048014051
0.045092426 0.053182505 0.0043660803
0.045072805 0.056982193 0.004439468
