# .PCD v0.7 - Point Cloud Data file format
VERSION 0.7
FIELDS x y z
SIZE 4 4 4
TYPE F F F
COUNT 1 1 1
WIDTH 1358
HEIGHT 1
VIEWPOINT 0 0 0 1 0 0 0
POINTS 1358
DATA ascii
0.0059137749 0.068218149 0.027957035
0.0065041478 0.064406365 0.023715938
0.0064896676 0.064197421 0.023174392
0.0058117392 0.065582588 0.024904795
0.0063620727 0.066530325 0.026344176
0.0061827037 0.063565478 0.015542073
0.0058222334 0.063620239 0.017341277
0.0058499235 0.063617244 0.01771838
0.0066568661 0.063796379 0.020518096
0.0059737484 0.064070418 0.022108156
0.0067289951 0.06868986 0.032762967
0.0059188227 0.063957386 0.021284144
0.0062265503 0.063612178 0.017915616
0.0062042768 0.068843484 0.033328779
0.0067245062 0.068513915 0.029879913
0.0066374834 0.068614528 0.030113854
0.0061358209 0.068649046 0.031690691
0.0062839421 0.068650983 0.0312525
0.010336007 0.15814152 0.027294107
0.010510194 0.075224698 0.0452439
0.010642818 0.12466688 0.051192187
0.0098555079 0.075974263 0.046496186
0.0098816631 0.14133681 0.039571863
0.010665617 0.12199061 0.053074241
0.010130606 0.11895156 0.054614007
0.0098216822 0.08119987 0.050872579
0.0099691069 0.087023698 0.052685544
0.010192151 0.12045196 0.053967204
0.010022811 0.12188215 0.053233664
0.0098908534 0.12104706 0.053736579
0.010267123 0.12357628 0.052175421
0.009888391 0.12330531 0.05240057
0.010007779 0.12476691 0.05129946
0.010160624 0.12242129 0.052906528
0.0098007722 0.082462557 0.051643107
0.010531603 0.14255154 0.03919686
0.010686896 0.14418902 0.038654607
0.010663236 0.1328093 0.046493977
0.010232794 0.077591255 0.047984395
0.010199754 0.14666258 0.037618965
0.010547823 0.13764411 0.040983066
0.010330616 0.13784696 0.040787239
0.010150841 0.12398881 0.051900648
0.010243467 0.12389536 0.051954616
0.0098203523 0.13943501 0.040031176
0.010407652 0.12598489 0.050143167
0.0099421693 0.13915165 0.040122777
0.010373346 0.14022893 0.039682735
0.0099877482 0.14046507 0.039733779
0.010588265 0.1268817 0.049400348
0.010717853 0.14371797 0.038807187
0.010162736 0.14273819 0.039292186
0.010045643 0.089872852 0.052707773
0.0098884394 0.12891589 0.048316129
0.0099998815 0.13579202 0.043276697
0.010390776 0.1363824 0.042517673
0.010225165 0.13199565 0.047028039
0.010350834 0.1265907 0.049673244
0.0099096512 0.13841008 0.040361907
0.0097670285 0.13541663 0.043602407
0.010128002 0.13502197 0.044167142
0.0098701036 0.13632984 0.04238528
0.0099378033 0.13698749 0.041490618
0.010326869 0.13423705 0.044958401
0.010502088 0.13335177 0.045951229
0.010409786 0.13309881 0.04618657
0.0099038361 0.13229941 0.046698444
0.010052982 0.12977518 0.048073586
0.01016499 0.13102007 0.047560133
0.010185148 0.13162471 0.047273718
0.01009852 0.16091225 0.016415004
0.010251767 0.16010115 0.021809306
0.01006494 0.15321714 0.03396925
0.010602805 0.1599436 0.022037888
0.0098742312 0.16030928 0.021161068
0.010076026 0.16043784 0.020254616
0.010689526 0.16037893 0.019797252
0.010180934 0.15963803 0.023375535
0.0099330088 0.15998803 0.022411594
0.010065022 0.15945776 0.024125952
0.009822431 0.14982149 0.036336396
0.00975662 0.16092297 0.017162841
0.010740071 0.15983999 0.022275558
0.010706431 0.15906049 0.024846777
0.010218955 0.15916584 0.024967896
0.010633695 0.16066347 0.018059744
0.010480112 0.16062944 0.018524705
0.010238971 0.16078368 0.017344214
0.009993813 0.15129419 0.035491187
0.010589789 0.11599886 0.054940075
0.010275013 0.11490518 0.055071648
0.010344627 0.092603944 0.053803291
0.01005959 0.092109725 0.053759541
0.010007991 0.070893519 0.045148741
0.0098353764 0.070729703 0.045166209
0.010090164 0.091009349 0.053076409
0.0105987 0.076184809 0.046186898
0.010489016 0.07829462 0.048294477
0.01039151 0.14457144 0.038590677
0.0098587228 0.10505468 0.055551682
0.010150659 0.10545702 0.055363294
0.01053455 0.092336699 0.053400762
0.010433353 0.093980968 0.054055054
0.01036683 0.070273295 0.045104243
0.0099723702 0.14570566 0.038189549
0.0099911159 0.083177812 0.051977683
0.0099962978 0.078352377 0.048733912
0.010124925 0.078453295 0.048707202
0.010201263 0.14362356 0.039008759
0.010482672 0.10713547 0.055134118
0.0097650019 0.081461385 0.051076084
0.010347067 0.081588455 0.050848961
0.010281834 0.095923789 0.054236539
0.0097849397 0.11863637 0.054820821
0.010249964 0.071745865 0.04512769
0.010671965 0.071675815 0.045091726
0.010321169 0.071400151 0.045120962
0.010700664 0.11795706 0.054660976
0.010717935 0.11697792 0.054799356
0.010557941 0.11610381 0.054946616
0.010314371 0.09434405 0.054170296
0.010480846 0.11819571 0.054709792
0.010326213 0.11270238 0.054723375
0.010033558 0.11164229 0.054763794
0.010325338 0.11294475 0.054760408
0.010677847 0.1126709 0.054539535
0.010727803 0.10918041 0.054779466
0.010696921 0.15116346 0.035296075
0.010478082 0.097222097 0.054290392
0.010144918 0.11033829 0.054794818
0.010318658 0.10938487 0.05489485
0.010461963 0.11445936 0.054930437
0.010601307 0.1504128 0.035794139
0.010587483 0.15038352 0.03581379
0.010624154 0.11111086 0.054536704
0.01047382 0.084129758 0.052172698
0.0098564392 0.094687268 0.054529272
0.0099532632 0.14464693 0.038710263
0.0097750975 0.091461957 0.053594459
0.010374284 0.094671622 0.054135483
0.010444219 0.074465364 0.044771846
0.0099883741 0.074392833 0.04492769
0.009809467 0.083564244 0.052162685
0.010158173 0.10717755 0.055286523
0.01008423 0.067498669 0.045022391
0.009795974 0.086408757 0.052705929
0.009980916 0.10013747 0.054986309
0.0099705448 0.096440248 0.054477774
0.010012063 0.1145033 0.05517612
0.01065082 0.076877438 0.046906721
0.010306179 0.091652758 0.053270638
0.010719153 0.095775895 0.053918153
0.0097659258 0.12036237 0.054093029
0.010095007 0.098234944 0.054657008
0.0099040633 0.14796431 0.037138514
0.010446801 0.079981811 0.049577937
0.0098361401 0.11295229 0.055007149
0.010021339 0.080109157 0.049970087
0.0098762466 0.080144495 0.050080318
0.01017269 0.099760778 0.054858111
0.010116207 0.10029412 0.054956768
0.010427582 0.10208948 0.055026956
0.010013196 0.11514849 0.055213571
0.0097519597 0.14778215 0.037264489
0.0101155 0.099458024 0.054842774
0.010284509 0.1037257 0.055254266
0.010279971 0.079287045 0.049201101
0.010420653 0.079015233 0.04888992
0.010007462 0.15251267 0.034605686
0.01070807 0.15301795 0.033867814
0.010674964 0.15382768 0.033023588
0.010692696 0.15424281 0.032553587
0.010049275 0.15509167 0.0317876
0.010229069 0.15444493 0.032531027
0.010175846 0.15600817 0.030596662
0.010284728 0.15644048 0.029977407
0.010001971 0.15531781 0.031522274
0.010045751 0.15310468 0.034090269
0.010689045 0.15788211 0.027623154
0.010403621 0.15721031 0.02881545
0.010172426 0.15708698 0.029085387
0.0099545075 0.1569365 0.029372361
0.010048068 0.1568554 0.029464234
0.010664797 0.064909987 0.042783659
0.0098801991 0.065425143 0.044205841
0.010502177 0.067163788 0.044893511
0.010609224 0.066297844 0.044825517
0.010227568 0.064964831 0.035341479
0.0098878769 0.06462948 0.038118966
0.010256725 0.064790063 0.035963178
0.0098083941 0.065042183 0.035213277
0.0097982651 0.065519013 0.034538094
0.010556984 0.066028461 0.032700453
0.010222352 0.065976731 0.033483889
0.0097938282 0.067366615 0.031794049
0.0098767234 0.067292787 0.031538185
0.010090294 0.066732183 0.032458518
0.010538018 0.066578455 0.030888282
0.01028877 0.066838577 0.031233506
0.0097545376 0.067395352 0.030609531
0.010033964 0.066080965 0.028561022
0.010714314 0.065374859 0.028067471
0.010269011 0.064928278 0.02653845
0.0098486496 0.064902499 0.02614969
0.010059818 0.064679883 0.041636799
0.010000664 0.064669095 0.041076623
0.0098084947 0.064691901 0.02484061
0.010243448 0.064618565 0.024567392
0.010363373 0.064606383 0.03881754
0.0098957373 0.069655046 0.045093555
0.010472502 0.064540617 0.022359105
0.010578311 0.064727642 0.021248853
0.010066672 0.064579912 0.024023466
0.010196793 0.068197258 0.045004353
0.010406408 0.064854026 0.020397488
0.0098857274 0.064724997 0.020742191
0.010542902 0.064606257 0.038047917
0.010052013 0.064620815 0.038129542
0.014114222 0.15917167 0.019346295
0.013885415 0.14978753 0.035068762
0.013828526 0.14017144 0.03978936
0.013881548 0.14336872 0.038221959
0.014490905 0.14059898 0.039644182
0.014621417 0.14551811 0.037027836
0.014745655 0.14756715 0.036119219
0.014405037 0.12984222 0.047532972
0.014063376 0.1309005 0.047319256
0.014091491 0.13136081 0.047145914
0.014104667 0.12905665 0.047719069
0.013793918 0.12949279 0.047726538
0.014289196 0.1304743 0.047419704
0.013816326 0.13673377 0.0423081
0.013941887 0.13343245 0.045669608
0.013916957 0.13308033 0.046022177
0.014025337 0.1357661 0.043275848
0.014386307 0.14590639 0.036890969
0.01416698 0.13800806 0.04103753
0.014309014 0.13771036 0.041338868
0.013935531 0.13860299 0.040606987
0.014469407 0.14673793 0.036546826
0.013814735 0.12700544 0.048349548
0.014099731 0.12853208 0.047831077
0.013991739 0.12753221 0.048080951
0.014249059 0.13220522 0.046603937
0.013800728 0.13190275 0.046899177
0.013868115 0.13514183 0.043935597
0.014072484 0.1350148 0.044046029
0.014148827 0.13702995 0.042015117
0.01453112 0.12725441 0.04801755
0.014699279 0.12655941 0.048255321
0.01451626 0.14108655 0.039405093
0.014632675 0.14187562 0.038994376
0.014726284 0.13309661 0.045892444
0.014571997 0.13760915 0.041440371
0.014648221 0.1393601 0.040237304
0.01455121 0.12918116 0.04758558
0.014656651 0.12972793 0.047484782
0.014587759 0.13044435 0.047354087
0.014644078 0.12858161 0.047664046
0.014238718 0.15933205 0.016521333
0.014478645 0.15922813 0.015532888
0.013905398 0.15948176 0.01637622
0.014485306 0.074371636 0.044072609
0.014733917 0.096317478 0.052416269
0.013799391 0.10778605 0.054409962
0.014198921 0.082708612 0.048548192
0.014079678 0.084442496 0.049573626
0.014374978 0.14925376 0.035315093
0.014382037 0.14845732 0.035753295
0.01420392 0.083600983 0.049055394
0.014302853 0.085756741 0.049877938
0.014560218 0.092687979 0.051190339
0.014555528 0.091973335 0.050842926
0.014538395 0.084659152 0.049270835
0.014237515 0.087212436 0.050161932
0.01440931 0.087186418 0.050045434
0.014656882 0.088426597 0.049911093
0.014202709 0.088422082 0.050148048
0.014534379 0.090118334 0.050118513
0.013922486 0.1039856 0.05399166
0.014725938 0.089260384 0.049946014
0.014625131 0.090206996 0.050114822
0.014504424 0.091704249 0.050739285
0.013880863 0.076098993 0.044144001
0.014174311 0.093646199 0.051873796
0.014090168 0.093185574 0.051690958
0.014106094 0.089525595 0.050244451
0.01400018 0.069665775 0.044493724
0.014293316 0.068947211 0.04435271
0.014259002 0.070461914 0.044545084
0.014532088 0.14872514 0.03557587
0.014234449 0.072889417 0.044522144
0.01409145 0.12491126 0.049695764
0.014115094 0.12457038 0.049948517
0.013789161 0.15034387 0.03476581
0.013780738 0.085951023 0.050431468
0.013886842 0.069544956 0.044496957
0.014292623 0.12023652 0.052110177
0.013907525 0.067730322 0.044326823
0.014291479 0.11742274 0.052369453
0.014330289 0.11830546 0.052315414
0.013778529 0.091961309 0.051169485
0.013936347 0.091861703 0.051055986
0.014172363 0.074537337 0.044048127
0.014450277 0.073505417 0.044363242
0.014036841 0.076980792 0.044650566
0.013901508 0.076837182 0.044633575
0.014474313 0.071363583 0.044569504
0.013886265 0.12392245 0.050530478
0.014533202 0.11567553 0.052171052
0.014390997 0.079187289 0.046101179
0.014668006 0.12510571 0.049251538
0.014047104 0.11413722 0.052458249
0.014708183 0.078038149 0.045013845
0.013797025 0.077810481 0.045459472
0.014065376 0.077594221 0.045105662
0.014400984 0.12214203 0.051437002
0.014001126 0.12032098 0.052260857
0.014124284 0.11770132 0.052529372
0.014047819 0.1196944 0.052382633
0.01397027 0.11627289 0.052619971
0.013949285 0.11856606 0.05269463
0.013880863 0.116888 0.052773837
0.013786822 0.094089836 0.052251652
0.014064706 0.11253273 0.052867487
0.014298956 0.11213549 0.05296151
0.014272089 0.11211608 0.05297552
0.014450229 0.10930818 0.053983353
0.014607004 0.10964686 0.053838756
0.014456074 0.11174708 0.053075351
0.014402009 0.11091644 0.053440809
0.014482754 0.11080679 0.053469125
0.014383293 0.10945701 0.053951196
0.014385588 0.11029142 0.053685401
0.014358732 0.10886529 0.054094709
0.014054633 0.094702512 0.052398931
0.01435688 0.096912071 0.052754179
0.013842854 0.08015877 0.047200736
0.013822167 0.098837078 0.053085547
0.014113254 0.079736397 0.046662025
0.014466836 0.081094153 0.047328491
0.014090857 0.082026362 0.048266619
0.014714944 0.1042411 0.053589981
0.014273479 0.10461885 0.053982753
0.01442122 0.081971541 0.04796762
0.014453045 0.081791095 0.047822773
0.01443779 0.098784536 0.052723479
0.013797122 0.097777613 0.05308881
0.014635759 0.10251487 0.053277336
0.014537926 0.10167298 0.053277578
0.013965945 0.10139665 0.053395621
0.01407545 0.10109653 0.053287964
0.014697953 0.10049653 0.052970666
0.014665137 0.10026105 0.052927293
0.014548629 0.09983582 0.052869365
0.014581646 0.10649712 0.054134723
0.014642003 0.099135347 0.052700475
0.014669987 0.12492214 0.049409077
0.014238725 0.12255494 0.05131704
0.013905636 0.1020678 0.053579364
0.013834822 0.12562203 0.04923277
0.014134786 0.15083605 0.034270316
0.014577131 0.15401128 0.030979851
0.014227233 0.15486203 0.030189877
0.014419372 0.15587606 0.028676717
0.014122109 0.1551757 0.029831173
0.013840391 0.1553957 0.029703097
0.014719586 0.15696718 0.026445545
0.014125875 0.15695633 0.026985034
0.014318868 0.15639406 0.028005263
0.013952958 0.1576153 0.025457172
0.014457273 0.15722394 0.026022373
0.014143429 0.15706964 0.026700115
0.014317307 0.15824305 0.023064297
0.014434597 0.15817891 0.023166806
0.014607511 0.15826604 0.022566864
0.014480359 0.15825874 0.022784211
0.014105353 0.15815412 0.023645885
0.014485153 0.15881747 0.020361114
0.014576963 0.15889934 0.019835657
0.013794995 0.15890756 0.021161614
0.014105099 0.15878691 0.021102838
0.014544754 0.15921445 0.016452838
0.014425307 0.1592446 0.01685214
0.013803325 0.15941028 0.018236302
0.014676227 0.066925421 0.043971743
0.01428499 0.064584047 0.02980217
0.014474756 0.064531088 0.034956463
0.01381332 0.064484328 0.036031526
0.014649565 0.064506173 0.025955249
0.014607224 0.064501241 0.02574588
0.013801887 0.064617425 0.028555181
0.014209206 0.064556003 0.027214764
0.013809285 0.064534172 0.027084278
0.014707672 0.064454377 0.024428321
0.014720502 0.064468592 0.024884958
0.014525927 0.064536467 0.037508775
0.014469179 0.064529583 0.036727123
0.014085795 0.064500555 0.02549265
0.014749161 0.0645625 0.037535697
0.014720473 0.064559311 0.037304319
0.014488305 0.064712986 0.039953295
0.013751003 0.064740553 0.041205477
0.013755913 0.064489752 0.025675515
0.01450356 0.064426824 0.023305995
0.014515671 0.064265698 0.022061508
0.014051448 0.064385474 0.02274139
0.014472864 0.065179601 0.042259943
0.014199524 0.06501624 0.041969072
0.014317657 0.065209672 0.042446632
0.014250445 0.064574704 0.027534375
0.014469857 0.064552099 0.027134823
0.013825743 0.064531684 0.032605898
0.013894192 0.064528078 0.032642856
0.014235578 0.064560667 0.031469516
0.014032054 0.064576343 0.030854408
0.014512184 0.064576417 0.030905316
0.014352075 0.064573064 0.03074926
0.018625401 0.13431123 0.042856369
0.018594585 0.11400503 0.050468765
0.018661987 0.12845658 0.046604749
0.018059909 0.13625965 0.041079033
0.017816864 0.13662615 0.040764477
0.018584933 0.13112098 0.045434441
0.018471345 0.13838515 0.039320089
0.018135801 0.1380569 0.03955989
0.018645078 0.12094345 0.047762562
0.018424369 0.1366844 0.040528309
0.017999396 0.12002606 0.048368428
0.017827898 0.13816714 0.039578807
0.018601507 0.13617596 0.040994648
0.017973296 0.14115603 0.037870955
0.017795864 0.13880222 0.039271489
0.017986167 0.1461011 0.035713028
0.018244028 0.14799541 0.034464575
0.018465322 0.14785056 0.034524456
0.018346947 0.11482632 0.050170921
0.018202532 0.114632 0.050331023
0.018295117 0.14697532 0.035172354
0.018476296 0.14670803 0.035286807
0.018722888 0.12945929 0.046263255
0.018314041 0.12924366 0.046474155
0.018504094 0.13388349 0.043306924
0.018114764 0.12727241 0.046975471
0.018343117 0.12680075 0.047032181
0.017894607 0.12644796 0.047161613
0.018449109 0.12851331 0.046635706
0.018147603 0.13976204 0.0386937
0.018152446 0.1329857 0.044229213
0.01799494 0.13505687 0.042314187
0.018355537 0.12456616 0.047395129
0.017771292 0.12456381 0.047549091
0.018372726 0.12626745 0.047122236
0.018046949 0.12560123 0.047267232
0.018686682 0.13785231 0.039547727
0.0186693 0.13938235 0.038770385
0.018037941 0.089159846 0.048914723
0.018172111 0.096400365 0.050331768
0.018625781 0.083055429 0.047582354
0.018690459 0.084104188 0.0481093
0.018148314 0.085098691 0.04851437
0.01831761 0.084444731 0.04827711
0.017778557 0.11905164 0.049007878
0.018245898 0.089301586 0.048865817
0.018285338 0.090535358 0.048821434
0.018093072 0.083240233 0.047768377
0.017863803 0.083616488 0.04800988
0.018489774 0.14528364 0.036052525
0.018307317 0.077452779 0.042857688
0.017963521 0.07681977 0.042770177
0.018335048 0.087356158 0.048837915
0.018722765 0.07875286 0.043851573
0.018392891 0.077855274 0.043008525
0.018734343 0.073850885 0.043065466
0.018237304 0.071648039 0.043660231
0.017838016 0.071369976 0.043841541
0.018429019 0.12150215 0.047736298
0.018453848 0.097828262 0.050515451
0.018653125 0.097466461 0.050335031
0.018229697 0.12040396 0.048050515
0.017934758 0.12086123 0.048162077
0.018044889 0.091491163 0.049130294
0.018620607 0.073196523 0.043272469
0.018073987 0.11903687 0.048691727
0.017900784 0.068771288 0.043409552
0.017886613 0.069101073 0.043487485
0.018426094 0.070220187 0.043445978
0.018306419 0.069254436 0.043298572
0.018722612 0.073175386 0.043234903
0.018243682 0.074695386 0.042917658
0.017977107 0.075251728 0.042810246
0.018216584 0.089239389 0.048876375
0.018236257 0.088387236 0.048881359
0.01806261 0.07063546 0.04370388
0.018418431 0.085309789 0.048524681
0.018512778 0.085302606 0.048508458
0.018676274 0.093492195 0.049208637
0.018482681 0.10004685 0.050684329
0.017914865 0.09210372 0.049349077
0.018188704 0.099675246 0.050810285
0.018711254 0.10134611 0.051028829
0.017872546 0.094622307 0.049961932
0.018319823 0.097096637 0.050466109
0.018709309 0.11827762 0.048587803
0.018699866 0.091792889 0.048726808
0.018310986 0.10367547 0.052147806
0.018180773 0.11635508 0.049596142
0.018137954 0.092839949 0.049402826
0.01828282 0.10401202 0.052258268
0.018448059 0.095458657 0.049871679
0.01803036 0.11344325 0.050897166
0.018139515 0.11363982 0.050773785
0.018231403 0.079814486 0.045231268
0.018654391 0.079533421 0.044752162
0.018396512 0.10190219 0.051356412
0.01819678 0.10252302 0.051694535
0.018671181 0.13167962 0.045020919
0.018721666 0.13163628 0.045030337
0.017976724 0.10171209 0.051370304
0.018037386 0.10515979 0.052672483
0.017901208 0.10676137 0.052919578
0.018009279 0.1091737 0.052608419
0.018115547 0.080903284 0.046267938
0.018586088 0.098144509 0.050460193
0.018231187 0.10770857 0.052698579
0.018053249 0.10952447 0.052510865
0.018202413 0.10699144 0.052740432
0.018556479 0.10568968 0.052503213
0.01866404 0.10989124 0.052072983
0.018386219 0.080582917 0.045914318
0.018737823 0.075072765 0.042568363
0.017987099 0.093493149 0.049659207
0.018200014 0.10020884 0.050839737
0.018603366 0.10071734 0.050831363
0.018674247 0.13481157 0.042367149
0.017798271 0.079160705 0.044782169
0.017944347 0.078879669 0.044413056
0.018732022 0.10527529 0.05233036
0.018087965 0.14858486 0.033987295
0.018296611 0.15010159 0.032400541
0.018270873 0.14981328 0.032730427
0.01833348 0.15080525 0.031470869
0.018479265 0.15123412 0.030887734
0.018356562 0.15022711 0.032236267
0.018087529 0.15031025 0.032135956
0.018300775 0.15190257 0.029907316
0.01822817 0.15172765 0.030185491
0.017931607 0.15106632 0.031142725
0.018171862 0.15116724 0.030997461
0.018479079 0.15324789 0.027545938
0.018180382 0.15241483 0.029160706
0.017837543 0.15377267 0.027167447
0.018445175 0.15502228 0.023499107
0.018243514 0.1546593 0.024884559
0.018729504 0.1547396 0.024055762
0.018394675 0.15565582 0.021347297
0.018261611 0.15557462 0.021763736
0.018537063 0.15595606 0.020163668
0.018446948 0.15578251 0.020919433
0.018022653 0.15593135 0.021079704
0.018585742 0.15657669 0.015738558
0.018576838 0.15655921 0.016422914
0.018570799 0.15655516 0.016542042
0.017883357 0.1566373 0.01836461
0.018010166 0.15654884 0.018582109
0.018594049 0.15633985 0.01829287
0.018030461 0.1564419 0.019208804
0.017877318 0.15690362 0.015682714
0.01796763 0.15676922 0.017171381
0.018657111 0.14901677 0.033466041
0.018055726 0.14925648 0.033365812
0.018230811 0.14888771 0.033670854
0.018561393 0.11205079 0.051267963
0.017955791 0.11392086 0.050717682
0.018167835 0.063686647 0.025240727
0.01807249 0.063700929 0.025519827
0.018281035 0.063787103 0.027308211
0.018615741 0.063738354 0.025816882
0.018061895 0.063762762 0.027397295
0.018012822 0.063757114 0.029091243
0.018658798 0.063833475 0.027653193
0.018232767 0.063783087 0.029038273
0.017966926 0.063832663 0.03037226
0.018112939 0.063875429 0.03135445
0.018282373 0.063588604 0.023620991
0.018161628 0.063593358 0.023760013
0.018680327 0.063895963 0.030557262
0.018289763 0.063893631 0.032057472
0.017825425 0.063816868 0.034326799
0.018343996 0.063893981 0.033090375
0.017906882 0.063869111 0.033199783
0.017901126 0.063820027 0.034558386
0.018196043 0.063663557 0.024857836
0.018196762 0.063668743 0.024940029
0.018239725 0.063925922 0.03529232
0.017970391 0.063845359 0.035056327
0.018585507 0.064021647 0.035692945
0.018073678 0.064012691 0.037008997
0.01866382 0.06407921 0.036019903
0.018538296 0.06425944 0.037381392
0.017864469 0.064306185 0.039022699
0.018162124 0.06449867 0.039279189
0.018460095 0.064444721 0.038442995
0.018531002 0.064546138 0.038750324
0.017907631 0.064630985 0.040181577
0.018263165 0.065393813 0.041224081
0.018278439 0.065180764 0.040913306
0.018339571 0.066236511 0.042125162
0.01812217 0.065980859 0.042111203
0.018488031 0.067930229 0.042811211
0.01821816 0.06359341 0.021666434
0.018595491 0.063626051 0.021648381
0.018268675 0.063813239 0.021106614
0.017768998 0.063601077 0.024093503
0.018266063 0.06352561 0.022637464
0.018389691 0.066690691 0.042401645
0.017880466 0.13211805 0.045023236
0.017757043 0.13216548 0.045030795
0.022366516 0.095239677 0.047133602
0.022512827 0.13767283 0.037665926
0.022028837 0.118256 0.048068643
0.022139695 0.12131263 0.047339771
0.022293851 0.11951054 0.047781728
0.022409592 0.12031442 0.047534574
0.021780223 0.11985163 0.047792766
0.022209551 0.13666835 0.038371354
0.02189834 0.13697121 0.038262352
0.022733565 0.13683388 0.038122848
0.022698741 0.13689311 0.038092166
0.021775983 0.12496002 0.046350788
0.021883376 0.11620077 0.048631467
0.022437658 0.069774508 0.04097756
0.02219208 0.07095997 0.04119622
0.021757588 0.073307678 0.041038383
0.022105992 0.074449569 0.040551987
0.02192276 0.076334126 0.040840466
0.021864317 0.076957054 0.041280519
0.021911755 0.075640678 0.040675472
0.022496715 0.078837201 0.042422704
0.022579312 0.079043612 0.042577088
0.022410985 0.13214257 0.041148718
0.022726785 0.081216037 0.044299927
0.022627097 0.1324067 0.040601198
0.021817673 0.1385653 0.037305519
0.022092268 0.13932267 0.036842644
0.022443857 0.13902608 0.036914621
0.021881297 0.14160496 0.035481665
0.021817476 0.14202628 0.035326537
0.022275809 0.14645991 0.032397382
0.02223336 0.14571708 0.03296132
0.02183079 0.098698296 0.049249157
0.02176505 0.098371036 0.049187981
0.0219233 0.10703892 0.050242912
0.022039231 0.1055254 0.050172262
0.021780729 0.10652956 0.050349317
0.021874376 0.10749751 0.050261404
0.022378143 0.14477772 0.033523489
0.021862492 0.10156673 0.049772933
0.022123713 0.11069297 0.04989912
0.021824416 0.10951472 0.050250672
0.022578809 0.14342593 0.034247003
0.021794427 0.10886544 0.050316103
0.022285998 0.10804144 0.050116077
0.021759864 0.10827839 0.050339371
0.022191916 0.096987866 0.048309863
0.021903794 0.096310765 0.048240621
0.021848127 0.095771946 0.047966272
0.022190154 0.09980803 0.049217466
0.022210773 0.11274585 0.049163505
0.022359096 0.11217767 0.049300279
0.022648454 0.11286146 0.048861474
0.022615567 0.10821892 0.049956467
0.022432789 0.11020161 0.049833547
0.021791242 0.085542537 0.04723949
0.021865211 0.097793981 0.048888352
0.021987934 0.098280497 0.048981294
0.022673763 0.12559777 0.045647167
0.022542614 0.12550035 0.045768261
0.021815538 0.12756246 0.044987645
0.02251935 0.12983125 0.043069452
0.022691127 0.13102952 0.042096801
0.022048607 0.12281505 0.046928827
0.022039566 0.13168947 0.041969825
0.02217555 0.12728429 0.04494847
0.02274226 0.11369786 0.048658069
0.021843079 0.12531963 0.046197239
0.021763258 0.13472617 0.039535053
0.021797266 0.094007231 0.047274824
0.02218568 0.094807029 0.047150094
0.022446647 0.095056191 0.046944644
0.022260997 0.093396686 0.046542402
0.022248406 0.12282673 0.046859678
0.021852523 0.12456759 0.046452932
0.022540074 0.085364528 0.046497319
0.02255211 0.084913887 0.046361145
0.022547223 0.095938325 0.047281079
0.022718992 0.12099402 0.047236606
0.022135541 0.080156043 0.044061214
0.022568673 0.080171838 0.043587361
0.022586476 0.072948918 0.04056263
0.022210155 0.081665546 0.045225266
0.022422612 0.081871621 0.045107458
0.021994375 0.12902291 0.04388959
0.021911278 0.12884118 0.044060357
0.022302382 0.11852233 0.047983959
0.022308681 0.07658723 0.040778127
0.022315163 0.076458275 0.040693667
0.022608377 0.072553813 0.040636528
0.022623301 0.074144736 0.040255558
0.022295531 0.074063122 0.040504687
0.022582732 0.10189343 0.049218807
0.022673231 0.1046223 0.049691614
0.022139627 0.10214958 0.049601726
0.021752685 0.083984584 0.04685542
0.022118896 0.083812691 0.046422154
0.021924697 0.080980092 0.045098793
0.022345286 0.083209828 0.045931794
0.021828383 0.12969849 0.043543003
0.022447824 0.12938951 0.043388471
0.021996669 0.14474086 0.033811998
0.021894503 0.14314479 0.034742773
0.022233211 0.066409945 0.039346885
0.022053029 0.066311955 0.039498217
0.02223593 0.066019237 0.038912423
0.022661135 0.091985352 0.046237368
0.022650722 0.094045796 0.046294857
0.022641513 0.098727018 0.048585534
0.022644218 0.10103156 0.049039304
0.021862872 0.085443422 0.04716444
0.022105705 0.084938809 0.046823576
0.022741675 0.098489098 0.048430383
0.022750054 0.095417544 0.046747409
0.022113584 0.09997391 0.049320392
0.022547789 0.086599171 0.046758242
0.022251949 0.088425174 0.047138695
0.021834228 0.14236134 0.035167519
0.021920737 0.14198767 0.035288509
0.022697926 0.14192674 0.034930084
0.021977313 0.090097144 0.047042571
0.022600081 0.088512048 0.046839293
0.022434838 0.091620073 0.046434049
0.022198323 0.089510873 0.047063764
0.021938067 0.11522405 0.048849452
0.022495534 0.14611527 0.032478388
0.021766536 0.091820605 0.046879124
0.022107989 0.092725448 0.046630442
0.022734281 0.12323274 0.046543751
0.022599831 0.12286189 0.046726365
0.022111636 0.068278551 0.040848244
0.021856871 0.066014096 0.039548092
0.021862969 0.066504449 0.040050566
0.02250199 0.065825321 0.038116597
0.022151746 0.065303817 0.037766375
0.022677843 0.066058472 0.03820423
0.022733998 0.065526381 0.036763728
0.022312067 0.064653322 0.035523012
0.022416003 0.068563655 0.040613588
0.022529457 0.14859638 0.029850742
0.022138216 0.14898518 0.029674601
0.022420634 0.14994457 0.027493995
0.022581227 0.14933345 0.028639447
0.022179265 0.14990073 0.027861735
0.021990545 0.14935046 0.029228181
0.022263035 0.15089193 0.025770437
0.021909378 0.15025467 0.027424438
0.022170641 0.15026118 0.027137861
0.021790449 0.15046461 0.0271315
0.022696808 0.15149996 0.023864955
0.022055112 0.15101495 0.025715247
0.02248355 0.15227856 0.021496121
0.022168182 0.1520879 0.022831945
0.02273329 0.15251639 0.017912094
0.022721797 0.15242195 0.019109713
0.022696543 0.15246868 0.018687582
0.022430528 0.15246983 0.020777198
0.022196207 0.15274914 0.019365886
0.021919128 0.15253282 0.021849703
0.021861482 0.15280142 0.020661559
0.022544533 0.15277117 0.015645081
0.022187751 0.15290931 0.016887443
0.022335231 0.15274374 0.017961673
0.022240188 0.11676006 0.048422433
0.021895498 0.11625479 0.048615456
0.022022326 0.11757661 0.048230156
0.022055801 0.063146755 0.01632902
0.021946073 0.063282929 0.015502344
0.022141952 0.063142926 0.016155286
0.021921713 0.062039826 0.019008515
0.022334941 0.062910706 0.01663517
0.021831457 0.062062804 0.019065578
0.022664454 0.0618678 0.019171691
0.022727624 0.062152844 0.017729431
0.022381485 0.061897729 0.018784704
0.022443905 0.061888155 0.019748988
0.022573352 0.061881255 0.019712044
0.021967459 0.061957259 0.021309979
0.0227223 0.063188054 0.014464869
0.022734012 0.061943125 0.02064852
0.021786891 0.06209046 0.02251016
0.022031855 0.062255945 0.02402254
0.021918353 0.062142339 0.022930788
0.021931998 0.062335845 0.02493996
0.021927968 0.062444646 0.025509488
0.022611629 0.062403988 0.024387592
0.022311229 0.06294392 0.026957342
0.022429839 0.06306532 0.027159166
0.021835152 0.0630816 0.028638918
0.021977566 0.063114926 0.028417958
0.022476014 0.06316179 0.027393511
0.021988213 0.063328147 0.029470179
0.022540234 0.063690685 0.029699069
0.02188037 0.063487172 0.031080103
0.02266027 0.063773066 0.029770447
0.022206314 0.063654974 0.030770548
0.022074454 0.063595049 0.030943939
0.022141896 0.1471656 0.031855121
0.022393875 0.14770278 0.0310851
0.022714548 0.14682984 0.031718977
0.026653662 0.081049055 0.04226074
0.02655052 0.080109388 0.041754939
0.026631549 0.071665511 0.037756398
0.026690144 0.072876267 0.037946898
0.026665732 0.081312485 0.042391878
0.026439101 0.12184528 0.043475494
0.026630662 0.1226083 0.0428623
0.026073784 0.12377002 0.04264164
0.026529655 0.12427318 0.042074855
0.025768943 0.12484158 0.04233285
0.025794182 0.12653157 0.041410547
0.025932077 0.12583628 0.041732367
0.026683647 0.096426368 0.043970406
0.026430916 0.093643785 0.0436831
0.02658819 0.067179568 0.034881085
0.026023593 0.10129073 0.046735331
0.025791094 0.10030779 0.046623144
0.026073977 0.10185854 0.046871837
0.026072711 0.102844 0.047171772
0.0258472 0.10325753 0.047489472
0.025902946 0.10366259 0.047463048
0.026105486 0.10539068 0.047268607
0.026072003 0.10500013 0.047334861
0.026303276 0.10589555 0.047006637
0.026004277 0.10825948 0.047053557
0.026323613 0.069793254 0.037518281
0.026370402 0.088812828 0.044226799
0.026682012 0.089154541 0.044095948
0.026263569 0.13686347 0.035072919
0.025762666 0.10732616 0.047312737
0.025948286 0.10722736 0.047169279
0.026060846 0.10913173 0.047038343
0.026205629 0.11644341 0.045845568
0.026063923 0.12000293 0.0448878
0.026196744 0.11059353 0.046986934
0.026087772 0.11828636 0.045517951
0.02585537 0.11214501 0.046959888
0.025843557 0.13103744 0.038593762
0.026164219 0.11581478 0.045939367
0.026253864 0.11709301 0.045678649
0.026449211 0.10547274 0.046866145
0.026662115 0.10458979 0.046610743
0.026205428 0.10190135 0.046702389
0.026288904 0.098978348 0.045061972
0.026242018 0.10148878 0.04654143
0.025921475 0.097559035 0.045010876
0.025791131 0.098993599 0.045800138
0.026571635 0.090003967 0.044031009
0.026130285 0.091781437 0.044013478
0.026202567 0.13003916 0.038740441
0.026522387 0.11473405 0.045800857
0.026400216 0.11461221 0.0459451
0.026410088 0.10682088 0.046825495
0.026667856 0.078132808 0.040352058
0.02665887 0.078800671 0.040829074
0.025925387 0.077928148 0.040607315
0.026744325 0.13330311 0.037553377
0.026593119 0.12815879 0.039637316
0.02592665 0.13167201 0.038443971
0.026318982 0.11046355 0.046911277
0.025936916 0.094644554 0.044032916
0.026441857 0.12909907 0.039077774
0.025925361 0.13071257 0.038623825
0.026686043 0.10959401 0.04666508
0.026621915 0.10069154 0.045756333
0.026555393 0.10039429 0.045664653
0.026187535 0.14137408 0.031443931
0.026740003 0.07701695 0.039535984
0.026574325 0.077285618 0.039810553
0.026213296 0.13839841 0.03400369
0.026588693 0.13864021 0.03366873
0.026266899 0.098818704 0.04499469
0.025945175 0.076228775 0.039431009
0.026671741 0.095263012 0.043662824
0.026589964 0.078654341 0.040765148
0.025895413 0.086919978 0.044520851
0.026631385 0.080316059 0.041820664
0.026533369 0.073438287 0.038157031
0.02585908 0.072617963 0.038387995
0.025910329 0.085284285 0.044356186
0.025780726 0.083254002 0.043841254
0.026249297 0.076254643 0.039313979
0.026518542 0.082656085 0.043214247
0.026741013 0.090965107 0.043844096
0.026207533 0.074812382 0.038634706
0.026286181 0.074301273 0.038464338
0.025822788 0.074649334 0.038786661
0.026379939 0.14147222 0.031232264
0.026181396 0.080486909 0.042256817
0.026099607 0.068720877 0.037239559
0.026700974 0.11405045 0.04575792
0.026730515 0.13575834 0.035714462
0.026310865 0.065417327 0.032739844
0.025906477 0.095686898 0.044380385
0.026523497 0.13699637 0.03484945
0.025780715 0.1385067 0.034117963
0.025828175 0.069455944 0.037934151
0.025810029 0.069244757 0.037891254
0.026575144 0.090506412 0.043972198
0.025962919 0.070885994 0.03810643
0.026279319 0.11162405 0.046763197
0.026738945 0.11270427 0.046042275
0.02633838 0.11322717 0.046277605
0.026366547 0.13393486 0.037299376
0.025949944 0.06995777 0.037948184
0.025789365 0.092286192 0.044101957
0.026146356 0.090826534 0.044141896
0.026101086 0.13395408 0.03737966
0.025990751 0.096426301 0.044541121
0.025869451 0.12324962 0.043133158
0.025807738 0.12200383 0.044030085
0.026595119 0.12047932 0.044203125
0.026397176 0.12033147 0.044447459
0.026622441 0.11963325 0.044601075
0.026319854 0.11932641 0.044987906
0.02576806 0.081894405 0.043289032
0.025840081 0.12915914 0.039295889
0.026619162 0.084560096 0.043850049
0.026372116 0.08514455 0.044126034
0.026280206 0.083866946 0.043812767
0.025986768 0.066804662 0.035510246
0.025976624 0.066906929 0.035675794
0.026667636 0.12559105 0.041431736
0.026675809 0.12573862 0.041331809
0.026291747 0.12587401 0.041439898
0.026644554 0.12665832 0.040756103
0.026597828 0.12476377 0.041832756
0.026165228 0.12784536 0.040116996
0.026005551 0.12715006 0.040791873
0.02642579 0.12752447 0.040216375
0.026588164 0.098092899 0.044562433
0.026007768 0.13550052 0.036282383
0.026387453 0.097509637 0.044545773
0.026354264 0.068627991 0.036813244
0.02621435 0.067066357 0.035384789
0.025834709 0.066465251 0.035305854
0.025804128 0.065465361 0.033858281
0.026629716 0.14054145 0.031986743
0.026706748 0.14243287 0.029837277
0.026082456 0.14278729 0.029967105
0.026539609 0.14442357 0.027414918
0.026378538 0.14355689 0.028773462
0.025987964 0.14403273 0.028576517
0.025972936 0.14412239 0.028476804
0.02673832 0.14548919 0.025351109
0.025997244 0.14525931 0.026813226
0.026390597 0.14588736 0.025086874
0.026082013 0.14622007 0.02486421
0.026258055 0.14568406 0.025726123
0.026319783 0.14588045 0.02522454
0.025956452 0.064738669 0.032248493
0.026284449 0.14661434 0.023211125
0.026658013 0.14639482 0.022966735
0.026088022 0.14678119 0.02317065
0.025806446 0.14643013 0.024891086
0.025934681 0.14639124 0.024709633
0.025816198 0.14679268 0.023815697
0.026104931 0.14737481 0.020621035
0.026454605 0.1471097 0.02040812
0.025980648 0.1473144 0.021391699
0.026440561 0.14696243 0.021295996
0.026568949 0.14748161 0.016229615
0.025908586 0.1477598 0.019153919
0.026207432 0.14746889 0.019433308
0.026283856 0.14773014 0.01575209
0.026056282 0.14186223 0.031002898
0.025912702 0.064146534 0.031212641
0.026119411 0.064877018 0.032209836
0.026113316 0.064296357 0.031125639
0.025865681 0.059251122 0.012515496
0.026324835 0.059295096 0.013527287
0.026488423 0.059390791 0.014374583
0.026585691 0.059408665 0.01450764
0.026665222 0.059265196 0.013214182
0.026705541 0.05947303 0.015289897
0.026128709 0.059520788 0.016695488
0.026492212 0.059523277 0.016178213
0.026717007 0.059665583 0.017442882
0.026285514 0.059758507 0.01862873
0.026003469 0.059894986 0.019870762
0.025831107 0.059836723 0.019714003
0.026421476 0.060257345 0.020982184
0.026432592 0.060130917 0.020413913
0.026038513 0.060587019 0.022361338
0.026574828 0.06045869 0.021478731
0.025816873 0.060602404 0.022614989
0.025845565 0.061035596 0.023634106
0.02652416 0.061058462 0.023137279
0.026601933 0.061011836 0.022961814
0.026031382 0.061391503 0.024331491
0.026473545 0.061401293 0.023999296
0.026237767 0.062322639 0.026525386
0.026412491 0.062017269 0.02554181
0.026069287 0.062612072 0.027615989
0.026360437 0.062633187 0.027275767
0.025828067 0.062890761 0.028583674
0.026377436 0.063206866 0.028614728
0.025979076 0.063621007 0.029996306
0.026369669 0.06381879 0.029903365
0.026159551 0.064032599 0.030581445
0.029963363 0.13603622 0.030589508
0.030704606 0.09611322 0.042603865
0.030483861 0.088307396 0.041584104
0.030306946 0.10485117 0.043158431
0.030255046 0.11270291 0.043142442
0.030195847 0.10956699 0.043197174
0.030038331 0.11780766 0.041778088
0.030531835 0.10066432 0.043684527
0.03028886 0.083372891 0.041157641
0.030510988 0.083155163 0.040992815
0.029907305 0.13216642 0.033678286
0.029847659 0.13228641 0.033656094
0.029765893 0.13146308 0.034367237
0.029773273 0.13375878 0.032757852
0.030367639 0.12929446 0.03514963
0.029781997 0.13266447 0.033471581
0.030525718 0.13104692 0.033821039
0.029764138 0.087582469 0.042080835
0.029927645 0.074864149 0.038202714
0.030048545 0.076085016 0.038868573
0.029842176 0.07563705 0.03871201
0.030090466 0.075550526 0.038526855
0.029881373 0.10621621 0.043173689
0.03010767 0.077533916 0.039581116
0.030439854 0.078009039 0.039612375
0.030628834 0.085522383 0.041301604
0.030351385 0.079126537 0.040144265
0.030522592 0.10449846 0.04317341
0.030144341 0.066716388 0.032082807
0.029928468 0.067371771 0.033086337
0.029969934 0.06704703 0.032656997
0.03030543 0.069088846 0.034220524
0.030300241 0.068682708 0.033852141
0.029944383 0.093070909 0.041561216
0.029874511 0.092983708 0.041567698
0.029994261 0.086314857 0.041851718
0.030533858 0.070423618 0.034954015
0.03073715 0.06970495 0.034091394
0.030629493 0.069855951 0.034395143
0.029879995 0.10400954 0.043598119
0.029766757 0.10691661 0.043216441
0.030273896 0.10792568 0.043071102
0.029884949 0.11242193 0.043377127
0.029775146 0.12250234 0.039580032
0.030321486 0.092348143 0.04138701
0.030631281 0.12093157 0.039803103
0.029776551 0.11133678 0.043435328
0.030748479 0.12027059 0.040047165
0.030167561 0.10059397 0.043922938
0.030225419 0.10019654 0.04388652
0.029807735 0.096335009 0.043417037
0.030310903 0.12157671 0.039703723
0.030007739 0.12244685 0.039411858
0.030187149 0.098802298 0.043755595
0.030100573 0.098795742 0.04380824
0.029854637 0.098839253 0.043968715
0.030295916 0.086436123 0.041612335
0.030658331 0.1253785 0.036562104
0.029965617 0.12771045 0.03620588
0.03055954 0.1259488 0.036359265
0.030355699 0.090562984 0.041551705
0.030182131 0.12948734 0.035228476
0.030180089 0.12913127 0.035439271
0.030019064 0.12924866 0.035534959
0.030485786 0.12796375 0.035640132
0.030280009 0.12817404 0.035754435
0.030008208 0.090494975 0.041691579
0.030193698 0.090947792 0.041548666
0.030243948 0.091025323 0.04151899
0.030658923 0.1175836 0.041380424
0.0305443 0.093932062 0.041610833
0.030460604 0.098820433 0.043597858
0.03014908 0.095624715 0.042860195
0.03069282 0.10375571 0.043230593
0.030330352 0.10577703 0.043017894
0.03053407 0.10850126 0.043037206
0.030320834 0.096599326 0.04318155
0.030072328 0.09667255 0.043369547
0.030231304 0.095179945 0.042502027
0.030385014 0.11858876 0.041143514
0.030539915 0.096412361 0.042926449
0.03036283 0.098368615 0.043578591
0.030510411 0.11603913 0.042115875
0.030049406 0.071484916 0.036262173
0.030310337 0.073026158 0.036922049
0.030539628 0.074889898 0.037840247
0.029960442 0.12091163 0.040404905
0.030318577 0.073956236 0.037433617
0.02982505 0.088735029 0.041970413
0.030507516 0.072061047 0.036158066
0.030521795 0.070848927 0.035275146
0.030106477 0.10148528 0.043924324
0.029952727 0.10247482 0.043899316
0.030232284 0.0706058 0.035465941
0.030229311 0.069760755 0.034884855
0.030193772 0.069558479 0.034785505
0.030472271 0.10992947 0.043135036
0.030333988 0.10992424 0.043167721
0.030396625 0.1073363 0.042987037
0.030049689 0.084598511 0.041556224
0.030180801 0.065886065 0.031316072
0.03027207 0.067208938 0.032360315
0.0306108 0.067666583 0.032314945
0.029942252 0.11970383 0.040996484
0.029826313 0.1152316 0.04286636
0.030154165 0.11221294 0.043257769
0.029821146 0.065974422 0.031845
0.029998027 0.11404061 0.043100551
0.030054286 0.11163837 0.043363214
0.030510344 0.094430879 0.041808274
0.030513477 0.11544895 0.042297065
0.030615471 0.12267745 0.038557637
0.029852547 0.084263995 0.041656587
0.029906925 0.12585938 0.036839861
0.030698702 0.066181771 0.031006891
0.030291926 0.12391488 0.037699521
0.02996026 0.12377518 0.038196258
0.029838044 0.12479389 0.037405085
0.03029545 0.065043062 0.030467728
0.029814482 0.13480429 0.03192715
0.030214246 0.13271581 0.032978512
0.030472226 0.13345982 0.032260139
0.029837657 0.13394366 0.032574307
0.030500069 0.13320783 0.032404255
0.03043488 0.13303412 0.032581706
0.030654248 0.11184976 0.043155663
0.030109007 0.08020144 0.040609412
0.029876757 0.089244738 0.041914038
0.030473676 0.085053533 0.041356217
0.030505892 0.085114375 0.041341495
0.030530598 0.081273831 0.040609051
0.03024755 0.081036851 0.040727232
0.030472979 0.11478049 0.042523168
0.03033625 0.097305551 0.043377813
0.030244332 0.086652219 0.041663192
0.030656092 0.062832512 0.028580351
0.030418154 0.13519256 0.030925935
0.030582126 0.13585904 0.029955652
0.03071012 0.13626823 0.029266691
0.03061999 0.13668191 0.028894231
0.030259471 0.13616332 0.030016575
0.029852021 0.13701387 0.029489201
0.030098274 0.13809784 0.027862227
0.0304281 0.13857868 0.026695298
0.02993812 0.13767797 0.028587209
0.029791817 0.13813718 0.028187109
0.030612204 0.13950382 0.024523372
0.030420046 0.13963217 0.024706792
0.030106068 0.13909341 0.026402248
0.030123416 0.13952206 0.025568036
0.030746173 0.14029285 0.020818101
0.030291796 0.1401998 0.023490719
0.030562289 0.14014587 0.022695929
0.029935695 0.14030334 0.024219479
0.030427352 0.14070183 0.019936619
0.030315891 0.14071274 0.020733478
0.03074 0.14037882 0.020079646
0.030497357 0.14051372 0.020975582
0.029896744 0.14066914 0.023254393
0.03021707 0.14116515 0.017076313
0.030284319 0.14104804 0.017787566
0.030685682 0.14071119 0.017303903
0.029818743 0.14136618 0.01888914
0.030337635 0.14090279 0.018830249
0.029834379 0.14116891 0.020650074
0.03008274 0.14106354 0.01952594
0.030040246 0.14140144 0.016180214
0.030416351 0.14103554 0.016166307
0.029805135 0.14150231 0.017638154
0.030258074 0.13486391 0.031405888
0.030015942 0.063872367 0.029844731
0.029965255 0.064429127 0.030310217
0.030228864 0.056645408 0.012453347
0.029988389 0.056746669 0.014301597
0.030323993 0.056724243 0.013546284
0.03032206 0.056727163 0.013579741
0.029751971 0.056867361 0.015488245
0.030490961 0.056868657 0.014770607
0.030297041 0.056984961 0.015642842
0.030033786 0.05728887 0.01728785
0.030019615 0.05724296 0.01705746
0.030510485 0.057383336 0.017513799
0.029757757 0.057604615 0.019386524
0.030030373 0.057500154 0.018506065
0.03052742 0.057784852 0.019141579
0.029768955 0.057935353 0.02044229
0.030542359 0.057942383 0.019768227
0.029907085 0.058494251 0.021927195
0.030418057 0.058591973 0.021888319
0.030673686 0.058392461 0.021167347
0.029974435 0.058919597 0.022961639
0.030155178 0.059162993 0.023449101
0.030669611 0.058968104 0.022689613
0.030138399 0.059505127 0.024196899
0.030075964 0.060321871 0.025732663
0.030712433 0.059412848 0.023789393
0.030275889 0.060220588 0.025479339
0.030691564 0.060994994 0.026398374
0.029862523 0.061770875 0.028110433
0.030274119 0.063049838 0.029037876
0.033754133 0.063040338 0.029909939
0.034263283 0.062963113 0.02991946
0.034690194 0.0674209 0.031397071
0.033882126 0.064525746 0.030553482
0.034019142 0.067268774 0.031477116
0.034030631 0.066369228 0.031154314
0.03435225 0.087470487 0.038914237
0.033810407 0.069670632 0.033099759
0.033895046 0.071905017 0.034692932
0.034195736 0.072388135 0.034671884
0.034400143 0.078159049 0.0381919
0.034022316 0.077976346 0.038517505
0.034388632 0.072141245 0.034227472
0.034420684 0.073149368 0.034969334
0.034616843 0.10769971 0.040230703
0.034351595 0.10763091 0.040579509
0.034581587 0.1091334 0.039931156
0.034563765 0.1047657 0.040379599
0.034147382 0.1085842 0.040608663
0.034457646 0.11089903 0.039524928
0.034284487 0.10474005 0.040748432
0.034422301 0.10615722 0.04065473
0.033952989 0.10978477 0.040406767
0.034208082 0.11015584 0.039989155
0.033989877 0.11172746 0.039603308
0.034568436 0.10202238 0.039960485
0.034666188 0.10268094 0.03985047
0.034438103 0.10361286 0.040283464
0.033966772 0.11263245 0.039187592
0.034091212 0.10290907 0.04054131
0.034213148 0.10257628 0.040380396
0.034386106 0.10313576 0.040238205
0.034650721 0.11506642 0.03717722
0.034582414 0.11698706 0.036030293
0.03466063 0.11734971 0.035700258
0.034625098 0.10019882 0.040011883
0.034318425 0.11797363 0.03569039
0.034386717 0.09833879 0.040506035
0.034521505 0.11953451 0.034462083
0.034479693 0.097440675 0.040376656
0.034453452 0.097807184 0.040429369
0.033842042 0.12140423 0.033935722
0.034648485 0.09490709 0.039720614
0.033884741 0.092826843 0.039926678
0.034582078 0.09473037 0.039734829
0.034516498 0.091222614 0.039419074
0.033844598 0.089744739 0.039684057
0.033890277 0.090074904 0.039670419
0.03383784 0.091826595 0.039854031
0.034270585 0.086584806 0.038979683
0.033786364 0.088326491 0.03957703
0.034096599 0.076138571 0.037595786
0.034088798 0.075878277 0.037455477
0.034314603 0.077118494 0.037867863
0.034070171 0.087621033 0.039162721
0.034222461 0.083915152 0.039363477
0.034334637 0.083495066 0.039315894
0.033990182 0.082358122 0.039535899
0.03432519 0.085081339 0.03915327
0.034391657 0.081167251 0.039105255
0.033942759 0.080735333 0.039364077
0.033936605 0.081855468 0.039523341
0.034474589 0.11380327 0.03810272
0.034038164 0.080038793 0.039152291
0.034256324 0.070883416 0.033464652
0.033872895 0.079276599 0.039119195
0.034677468 0.11338764 0.038121421
0.033816583 0.11814997 0.03607538
0.034564629 0.12763585 0.02862395
0.034666859 0.12779196 0.028368523
0.033889502 0.11689266 0.036819924
0.034469247 0.11247867 0.038766287
0.034745239 0.078856893 0.038092997
0.0343135 0.12056599 0.034002692
0.034712873 0.08952003 0.038954981
0.034640744 0.11177347 0.038899008
0.034509867 0.121915 0.03276274
0.034219109 0.12184075 0.033178084
0.034354202 0.12183581 0.03301416
0.034599036 0.091238193 0.039363548
0.034390189 0.11706695 0.036177889
0.034502968 0.11712712 0.036033921
0.033802785 0.11852053 0.035857968
0.033972181 0.12365256 0.032154098
0.034681484 0.10996534 0.039591521
0.034124926 0.12814417 0.028796559
0.033962086 0.098170348 0.040980104
0.033840291 0.10020941 0.040916279
0.034332857 0.12561758 0.030460555
0.034323856 0.12756129 0.029015712
0.034454301 0.11465129 0.037677657
0.033825547 0.075724654 0.037666038
0.033934981 0.096302941 0.040804204
0.034303159 0.12701552 0.029474199
0.034454428 0.12692587 0.029363045
0.033859238 0.09868978 0.041072574
0.033962831 0.10584666 0.041248135
0.034732968 0.12612329 0.029596785
0.034698978 0.12631571 0.029504273
0.034559831 0.12085321 0.033478536
0.033827238 0.095340118 0.040673565
0.034092896 0.10820062 0.040783525
0.034001112 0.1032159 0.04073777
0.034749135 0.12870044 0.027459066
0.033985503 0.10222849 0.04062907
0.033930197 0.10130019 0.04068036
0.034054734 0.10492299 0.041058976
0.033755913 0.10456772 0.041388746
0.03390757 0.057023518 0.024426805
0.034477204 0.12354042 0.031577371
0.034553945 0.12405368 0.031146932
0.034655601 0.083512127 0.039103348
0.034552746 0.083411805 0.039182059
0.034718782 0.12229154 0.032188557
0.033905417 0.12699464 0.029950965
0.033968188 0.12454073 0.031518783
0.034668356 0.12407425 0.030995945
0.034518249 0.081004962 0.038954694
0.033805497 0.12666801 0.030286402
0.034583345 0.12307242 0.031781435
0.03437601 0.12535918 0.030595139
0.03444802 0.076101422 0.03715628
0.03392186 0.074385218 0.03659229
0.034356855 0.074050918 0.03580106
0.034198277 0.11472189 0.037882578
0.034597985 0.086670958 0.038741462
0.034345977 0.12851278 0.028159941
0.034021989 0.12940486 0.027811239
0.03473521 0.055279821 0.018339396
0.034638263 0.055216536 0.01816701
0.034000054 0.12962084 0.027645461
0.034515239 0.13004853 0.026349183
0.034624912 0.13103987 0.024388943
0.034156747 0.13064367 0.026156839
0.034193687 0.13005422 0.026926951
0.033855401 0.13078238 0.026567431
0.034535468 0.13164088 0.023332335
0.034286097 0.13117582 0.02507014
0.034094922 0.13144104 0.025103211
0.034657918 0.1311139 0.024154903
