# .PCD v0.7 - Point Cloud Data file format
VERSION 0.7
FIELDS x y z rgb
SIZE 4 4 4 4
TYPE F F F U
COUNT 1 1 1 1
WIDTH 1056
HEIGHT 1
VIEWPOINT 0 0 0 1 0 0 0
POINTS 1056
DATA ascii
-0.081964701 0.15238 0.0054824902 4294901760
-0.082121097 0.152211 0.0053443699 4294901760
-0.081511602 0.074255399 0.016294699 4294901760
-0.081414998 0.073954202 0.016114499 4294901760
-0.081413098 0.073867299 0.015727401 4294901760
-0.081531197 0.077784203 0.026611101 4294901760
-0.082038201 0.078140803 0.0257893 4294901760
-0.082119398 0.077560902 0.023557501 4294901760
-0.081332304 0.154708 0.018224699 4294901760
-0.081853099 0.154467 0.019322401 4294901760
-0.081588604 0.15456 0.0144845 4294901760
-0.082040899 0.154505 0.0156647 4294901760
-0.081936002 0.154496 0.0149336 4294901760
-0.081253298 0.073722802 0.016877601 4294901760
-0.081195697 0.153972 0.0099972701 4294901760
-0.081386402 0.153945 0.0101656 4294901760
-0.081279397 0.153818 0.0093962001 4294901760
-0.081824899 0.15385599 0.0104393 4294901760
-0.081814498 0.154217 0.0126508 4294901760
-0.0817651 0.154257 0.0128017 4294901760
-0.0815401 0.154171 0.0118406 4294901760
-0.081431597 0.15442801 0.0132189 4294901760
-0.081604302 0.15278301 0.0061503602 4294901760
-0.082032599 0.15334199 0.0084971404 4294901760
-0.081588 0.15052401 0.033431999 4294901760
-0.081379302 0.150849 0.033049501 4294901760
-0.081468701 0.153332 0.0076704202 4294901760
-0.0816269 0.153752 0.0096079102 4294901760
-0.081817999 0.153548 0.0090957303 4294901760
-0.082049496 0.153474 0.0091682402 4294901760
-0.0814474 0.074310198 0.0169785 4294901760
-0.081280999 0.15381899 0.025283899 4294901760
-0.081667602 0.153474 0.0260497 4294901760
-0.0817976 0.152689 0.028544299 4294901760
-0.081457399 0.126966 0.052281201 4294901760
-0.081256904 0.129291 0.052342299 4294901760
-0.081357896 0.13177501 0.051511601 4294901760
-0.082052097 0.136976 0.047972798 4294901760
-0.081988603 0.136907 0.048076 4294901760
-0.081154302 0.123362 0.050902098 4294901760
-0.081853501 0.139873 0.0458019 4294901760
-0.081529602 0.14140201 0.044644099 4294901760
-0.081684701 0.141559 0.0443733 4294901760
-0.081743903 0.140577 0.045274299 4294901760
-0.081933297 0.120256 0.049052302 4294901760
-0.081807703 0.125774 0.0518957 4294901760
-0.081679098 0.119202 0.0489562 4294901760
-0.081810497 0.119183 0.048974101 4294901760
-0.081581302 0.137262 0.048128098 4294901760
-0.082141399 0.136116 0.0485145 4294901760
-0.082060903 0.142405 0.043283802 4294901760
-0.081491202 0.125512 0.051991601 4294901760
-0.081575997 0.143205 0.042913798 4294901760
-0.0814135 0.143259 0.0429825 4294901760
-0.081318401 0.145391 0.0407966 4294901760
-0.081451498 0.145832 0.040190499 4294901760
-0.081276096 0.118613 0.048861001 4294901760
-0.081361003 0.119077 0.0489306 4294901760
-0.081311598 0.122427 0.050080001 4294901760
-0.081923597 0.122947 0.0501591 4294901760
-0.082044899 0.133843 0.0500082 4294901760
-0.081596002 0.13526399 0.0494751 4294901760
-0.081243403 0.137244 0.048366699 4294901760
-0.082138501 0.13094801 0.051397301 4294901760
-0.081701003 0.146585 0.039102402 4294901760
-0.081953302 0.146038 0.039513301 4294901760
-0.081515901 0.133562 0.050519899 4294901760
-0.0813566 0.133533 0.050635301 4294901760
-0.082055002 0.13765401 0.0474599 4294901760
-0.081959501 0.138905 0.046546198 4294901760
-0.081950299 0.15022001 0.033649299 4294901760
-0.081320301 0.140497 0.045683101 4294901760
-0.081783101 0.13270999 0.050833602 4294901760
-0.082102999 0.13174701 0.051084101 4294901760
-0.081676103 0.13960899 0.046177 4294901760
-0.0815311 0.076715603 0.0236603 4294901760
-0.0813637 0.075956397 0.0227162 4294901760
-0.081403598 0.106906 0.028935401 4294901760
-0.0817599 0.079400897 0.029108601 4294901760
-0.082019903 0.0810702 0.0301551 4294901760
-0.081791803 0.104265 0.029557399 4294901760
-0.081993803 0.105122 0.0289809 4294901760
-0.081738703 0.105641 0.0290148 4294901760
-0.081886902 0.105008 0.0291683 4294901760
-0.081758797 0.105131 0.0292501 4294901760
-0.081364803 0.081518501 0.031394701 4294901760
-0.081338704 0.080799997 0.0309505 4294901760
-0.0813208 0.080735698 0.0309324 4294901760
-0.081639901 0.082881801 0.031657699 4294901760
-0.081404798 0.081800297 0.031474799 4294901760
-0.081397198 0.081584603 0.031383999 4294901760
-0.082090199 0.086857297 0.031876702 4294901760
-0.081980199 0.087028198 0.032049298 4294901760
-0.082097203 0.090428099 0.0318649 4294901760
-0.082131296 0.091744199 0.031945199 4294901760
-0.082013503 0.100268 0.0309224 4294901760
-0.081456199 0.101752 0.030950001 4294901760
-0.081461802 0.102614 0.030607499 4294901760
-0.081523404 0.103755 0.0300679 4294901760
-0.0813682 0.0824157 0.031803999 4294901760
-0.081332102 0.083557799 0.0323474 4294901760
-0.081179 0.083233804 0.0324503 4294901760
-0.081476897 0.083462499 0.032108001 4294901760
-0.081273302 0.085014902 0.032767199 4294901760
-0.081719503 0.084728397 0.032131702 4294901760
-0.081476398 0.086821198 0.032710101 4294901760
-0.081650101 0.087598398 0.032491401 4294901760
-0.081927001 0.088953502 0.032081701 4294901760
-0.081859499 0.089714304 0.032151598 4294901760
-0.081691101 0.091307797 0.032469898 4294901760
-0.081776798 0.092463203 0.032438099 4294901760
-0.081776202 0.094470501 0.032644901 4294901760
-0.082130902 0.094056197 0.032254301 4294901760
-0.081882998 0.093939997 0.032525301 4294901760
-0.081602901 0.096439801 0.032699801 4294901760
-0.081870899 0.097802103 0.032045402 4294901760
-0.081606202 0.098950498 0.031852402 4294901760
-0.081382297 0.100045 0.031653099 4294901760
-0.081319302 0.099415101 0.031961799 4294901760
-0.0815318 0.100209 0.031445101 4294901760
-0.0812006 0.100756 0.0315466 4294901760
-0.081263803 0.0870535 0.0330121 4294901760
-0.081184 0.088842198 0.0331515 4294901760
-0.081149101 0.090051897 0.033165801 4294901760
-0.0813201 0.092230797 0.0329662 4294901760
-0.081447601 0.091636099 0.032791302 4294901760
-0.081180401 0.093068101 0.0332072 4294901760
-0.081206501 0.094345503 0.033270001 4294901760
-0.081408702 0.0962658 0.032916199 4294901760
-0.081162699 0.095570602 0.0332352 4294901760
-0.081296302 0.0979001 0.0326024 4294901760
-0.081524901 0.13436601 0.0500574 4294901760
-0.0812172 0.149368 0.035747599 4294901760
-0.082035698 0.107215 0.027873401 4294901760
-0.081410401 0.124965 0.0518196 4294901760
-0.0820219 0.076951198 0.022844899 4294901760
-0.082094103 0.108505 0.027749799 4294901760
-0.081780098 0.108609 0.0281977 4294901760
-0.082132503 0.106889 0.027907699 4294901760
-0.081981502 0.107194 0.0279545 4294901760
-0.081353098 0.074596398 0.0178992 4294901760
-0.081251703 0.146083 -0.000133504 4294901760
-0.081961498 0.144628 0.00065901002 4294901760
-0.081376098 0.146796 0.000384727 4294901760
-0.081385501 0.147296 0.00069371 4294901760
-0.081859998 0.146881 0.00117229 4294901760
-0.082107499 0.147385 0.00193645 4294901760
-0.081717402 0.148718 0.0019147 4294901760
-0.081182398 0.14997099 0.00166145 4294901760
-0.081925698 0.15047 0.0027621 4294901760
-0.081270099 0.078312099 0.028479701 4294901760
-0.081641003 0.118109 0.0487931 4294901760
-0.081736997 0.14978801 0.034569498 4294901760
-0.081808999 0.149358 0.035204899 4294901760
-0.082120404 0.148837 0.0357286 4294901760
-0.081763104 0.14919201 0.035506599 4294901760
-0.082125202 0.075370297 0.017503999 4294901760
-0.081227504 0.15002701 0.034637701 4294901760
-0.081291303 0.109067 0.029526699 4294901760
-0.082075298 0.110136 0.031629 4294901760
-0.0814927 0.109774 0.031169901 4294901760
-0.081573203 0.109841 0.031019 4294901760
-0.081163801 0.109646 0.032264002 4294901760
-0.081651501 0.109939 0.031535301 4294901760
-0.082033202 0.109886 0.034595601 4294901760
-0.081763297 0.109902 0.033414301 4294901760
-0.081643097 0.075183801 0.018665699 4294901760
-0.081819199 0.109817 0.034511901 4294901760
-0.082107097 0.10981 0.036612701 4294901760
-0.081731498 0.075449899 0.0192226 4294901760
-0.082128502 0.076291397 0.020946899 4294901760
-0.081567198 0.109681 0.038214698 4294901760
-0.081326999 0.0752289 0.0202318 4294901760
-0.081605099 0.075960398 0.0220282 4294901760
-0.082035899 0.110267 0.0416127 4294901760
-0.081152499 0.076511897 0.0243087 4294901760
-0.081276201 0.110173 0.041853499 4294901760
-0.081788003 0.110661 0.0431269 4294901760
-0.081445098 0.112172 0.0454676 4294901760
-0.0817196 0.112969 0.046197899 4294901760
-0.082001902 0.112387 0.045636602 4294901760
-0.082131103 0.114016 0.047127899 4294901760
-0.081856199 0.116567 0.048454799 4294901760
-0.081210703 0.117206 0.048558101 4294901760
-0.081824698 0.109875 0.029575599 4294901760
-0.081478 0.079194002 0.029344199 4294901760
-0.0816577 0.0800725 0.0300142 4294901760
-0.077114202 0.15278301 0.0321525 4294901760
-0.0777575 0.15554699 0.018200301 4294901760
-0.077659197 0.128104 0.053140599 4294901760
-0.077811398 0.132131 0.0522702 4294901760
-0.077532902 0.131589 0.052505702 4294901760
-0.077798799 0.134051 0.0514092 4294901760
-0.077377401 0.136406 0.050125599 4294901760
-0.077745602 0.140063 0.047629301 4294901760
-0.077594496 0.140311 0.047482502 4294901760
-0.077718198 0.142802 0.045422699 4294901760
-0.077330597 0.143819 0.0446239 4294901760
-0.077229403 0.123232 0.052133899 4294901760
-0.077219397 0.13820501 0.0489696 4294901760
-0.077174202 0.14278001 0.0455787 4294901760
-0.077158101 0.147548 0.040657699 4294901760
-0.077859201 0.152086 0.033107799 4294901760
-0.077974699 0.120776 0.051523499 4294901760
-0.077343799 0.155173 0.0112115 4294901760
-0.078000396 0.17129 -0.038526598 4294901760
-0.077325903 0.155246 0.012008 4294901760
-0.078029498 0.153189 0.030344401 4294901760
-0.077306502 0.15539099 0.013464 4294901760
-0.078048199 0.15153 0.034069501 4294901760
-0.077913202 0.151701 0.0338469 4294901760
-0.0773765 0.164148 -0.024300201 4294901760
-0.077156097 0.171229 -0.037041999 4294901760
-0.077717297 0.14679299 0.041363101 4294901760
-0.077203497 0.153681 0.0024637601 4294901760
-0.0778988 0.15441 0.0073394999 4294901760
-0.077189401 0.17496701 -0.043762799 4294901760
-0.077565603 0.155167 0.0227901 4294901760
-0.077137403 0.15454 0.026543699 4294901760
-0.077938199 0.17470001 -0.0445049 4294901760
-0.07807 0.155396 0.019543899 4294901760
-0.077616803 0.15555 0.0188438 4294901760
-0.077123597 0.153488 0.0301593 4294901760
-0.078054003 0.17163999 -0.039400999 4294901760
-0.077751398 0.122734 0.0518024 4294901760
-0.077748902 0.154045 0.027718401 4294901760
-0.0777281 0.15422501 0.0271543 4294901760
-0.077232301 0.1551 0.023737701 4294901760
-0.077587098 0.15504199 0.023824999 4294901760
-0.077596597 0.15288401 0.031495798 4294901760
-0.077806197 0.152256 0.032790199 4294901760
-0.077190198 0.17480899 -0.043497302 4294901760
-0.077155299 0.174584 -0.043076701 4294901760
-0.077586196 0.153513 0.0296434 4294901760
-0.077186599 0.170522 -0.035707299 4294901760
-0.077223703 0.170654 -0.035998899 4294901760
-0.077853702 0.17560799 -0.045688398 4294901760
-0.077945396 0.176467 -0.049264502 4294901760
-0.077269301 0.175859 -0.045345299 4294901760
-0.077928998 0.17370901 -0.0428553 4294901760
-0.078002296 0.169808 -0.035653401 4294901760
-0.077838302 0.121779 0.0517346 4294901760
-0.077838503 0.145758 0.042467501 4294901760
-0.077613302 0.168621 -0.032427002 4294901760
-0.077679999 0.148727 0.038892802 4294901760
-0.077308103 0.164069 -0.023963699 4294901760
-0.0771093 0.161136 -0.0179391 4294901760
-0.077211 0.158705 -0.0150969 4294901760
-0.077943899 0.117594 0.0509694 4294901760
-0.077954501 0.14523999 0.042972799 4294901760
-0.077585302 0.16993301 -0.0350582 4294901760
-0.077418998 0.173164 -0.0410765 4294901760
-0.077785701 0.173251 -0.041816201 4294901760
-0.077470303 0.174025 -0.042495601 4294901760
-0.077114403 0.087864101 0.037838899 4294901760
-0.077506602 0.088671498 0.037483599 4294901760
-0.077251002 0.096343704 0.036325499 4294901760
-0.0774455 0.095557198 0.036271401 4294901760
-0.077218398 0.117953 0.051452201 4294901760
-0.077298701 0.176469 -0.0465676 4294901760
-0.077636898 0.17434201 -0.043197401 4294901760
-0.077257998 0.092239 0.037219301 4294901760
-0.077198602 0.091034897 0.037535999 4294901760
-0.077272698 0.090224497 0.0375861 4294901760
-0.077147298 0.092305198 0.037326802 4294901760
-0.077209197 0.16637801 -0.027436299 4294901760
-0.077720799 0.166815 -0.029716 4294901760
-0.077293597 0.097062401 0.036201 4294901760
-0.077917904 0.087936401 0.037019901 4294901760
-0.077684499 0.089696303 0.037222501 4294901760
-0.077919804 0.088999897 0.036993898 4294901760
-0.077369802 0.083717801 0.0366126 4294901760
-0.078075603 0.102584 0.033769399 4294901760
-0.078047901 0.080406703 0.034281701 4294901760
-0.077221602 0.079872303 0.034639999 4294901760
-0.077398099 0.10122 0.034930602 4294901760
-0.0774775 0.17727999 -0.050389901 4294901760
-0.077172302 0.172353 -0.046499401 4294901760
-0.077720404 0.171771 -0.045389701 4294901760
-0.0774647 0.171271 -0.044927701 4294901760
-0.078049801 0.17040101 -0.043391898 4294901760
-0.077288002 0.16621201 -0.0378461 4294901760
-0.077180199 0.165217 -0.036294099 4294901760
-0.0774175 0.165767 -0.036975499 4294901760
-0.077659801 0.164923 -0.0353208 4294901760
-0.077578001 0.165068 -0.0356219 4294901760
-0.077525198 0.164361 -0.034337699 4294901760
-0.077326298 0.16917799 -0.0329496 4294901760
-0.077128299 0.162784 -0.031913601 4294901760
-0.077536002 0.162181 -0.030226501 4294901760
-0.077742703 0.162754 -0.030854199 4294901760
-0.077898704 0.165227 -0.0277759 4294901760
-0.078046001 0.15287501 0.00132324 4294901760
-0.077890404 0.152945 0.00122854 4294901760
-0.0772264 0.161671 -0.029600499 4294901760
-0.0772717 0.16089401 -0.0277979 4294901760
-0.077205397 0.16018 -0.026385199 4294901760
-0.0777613 0.164693 -0.026527001 4294901760
-0.0773369 0.160004 -0.025782799 4294901760
-0.077449597 0.15939701 -0.0244688 4294901760
-0.077439703 0.15958001 -0.0248421 4294901760
-0.077920802 0.162715 -0.024537001 4294901760
-0.078066699 0.161048 -0.023648299 4294901760
-0.078038998 0.159767 -0.022176201 4294901760
-0.078048803 0.159684 -0.0222752 4294901760
-0.0773004 0.163331 -0.022680599 4294901760
-0.077348799 0.15770499 -0.021566899 4294901760
-0.077598497 0.157895 -0.0211388 4294901760
-0.077862501 0.158895 -0.0219284 4294901760
-0.0779173 0.160445 -0.0218061 4294901760
-0.077787504 0.161193 -0.021796901 4294901760
-0.077652998 0.157627 -0.0203242 4294901760
-0.077644803 0.16052701 -0.0200813 4294901760
-0.077408902 0.156939 -0.0200407 4294901760
-0.077710897 0.157685 -0.020041199 4294901760
-0.077716596 0.159252 -0.019165199 4294901760
-0.077759303 0.158603 -0.019165 4294901760
-0.0776878 0.15759499 -0.0182964 4294901760
-0.077693798 0.15732799 -0.0185658 4294901760
-0.077730604 0.158516 -0.018830899 4294901760
-0.077566199 0.159621 -0.0183207 4294901760
-0.077173501 0.155865 -0.017994599 4294901760
-0.077662803 0.157628 -0.0176432 4294901760
-0.077649496 0.156904 -0.017368199 4294901760
-0.077136599 0.160313 -0.016883699 4294901760
-0.077420101 0.15587901 -0.016486401 4294901760
-0.0771292 0.15495101 -0.015105 4294901760
-0.077162698 0.155018 -0.0151201 4294901760
-0.077166803 0.157977 -0.01412 4294901760
-0.077351101 0.157538 -0.0147734 4294901760
-0.077193603 0.157322 -0.0135947 4294901760
-0.077691101 0.15331499 0.0020470701 4294901760
-0.077473499 0.15332 0.00163272 4294901760
-0.077153698 0.158957 -0.0151495 4294901760
-0.077708803 0.167621 -0.0309697 4294901760
-0.077269599 0.17787001 -0.0503885 4294901760
-0.077461399 0.15075301 -0.0044877599 4294901760
-0.0773715 0.15131401 -0.0045686802 4294901760
-0.077789798 0.149214 -0.00338864 4294901760
-0.077579401 0.150658 -0.00319947 4294901760
-0.077680796 0.150627 -0.00289131 4294901760
-0.077905603 0.15054899 -0.00235416 4294901760
-0.077725098 0.15142 -0.0021057599 4294901760
-0.077508502 0.15251 -0.00115673 4294901760
-0.077873498 0.15133899 -0.00180528 4294901760
-0.078010999 0.15188999 -0.00074547197 4294901760
-0.0775114 0.15286 -0.000413834 4294901760
-0.077179797 0.167643 -0.0295163 4294901760
-0.077662699 0.153042 0.00082688202 4294901760
-0.077357002 0.16221499 -0.0211736 4294901760
-0.077291697 0.16273101 -0.021735899 4294901760
-0.077789403 0.116585 0.050508399 4294901760
-0.077148601 0.17236 -0.039222099 4294901760
-0.077633902 0.107485 0.034504101 4294901760
-0.078073703 0.108293 0.036117401 4294901760
-0.077350698 0.107915 0.0355912 4294901760
-0.0776987 0.108394 0.036918301 4294901760
-0.0772347 0.068715498 0.016684299 4294901760
-0.0779038 0.069321796 0.0172321 4294901760
-0.077850297 0.108661 0.038232401 4294901760
-0.077097997 0.068641402 0.0168407 4294901760
-0.077633999 0.070001401 0.020126799 4294901760
-0.077635303 0.069806598 0.019665999 4294901760
-0.077925503 0.070270501 0.020100201 4294901760
-0.077720501 0.070734397 0.021654001 4294901760
-0.077564202 0.108983 0.040303301 4294901760
-0.077099599 0.069773696 0.020905601 4294901760
-0.077312298 0.070180997 0.02141 4294901760
-0.077654503 0.071118601 0.0227952 4294901760
-0.077609099 0.071460702 0.0238744 4294901760
-0.077886201 0.072492301 0.025526 4294901760
-0.077559598 0.110292 0.0446194 4294901760
-0.077493802 0.111595 0.0462179 4294901760
-0.0779889 0.11233 0.046776101 4294901760
-0.077208102 0.071303703 0.0246819 4294901760
-0.077733599 0.0743187 0.028480001 4294901760
-0.078003801 0.075685702 0.0295617 4294901760
-0.077922598 0.076492399 0.030646499 4294901760
-0.077388197 0.113547 0.048514798 4294901760
-0.077542402 0.114566 0.049481999 4294901760
-0.077456102 0.113974 0.0489645 4294901760
-0.077098802 0.075243302 0.0304965 4294901760
-0.077614799 0.076300398 0.030845599 4294901760
-0.077504002 0.076662503 0.0313983 4294901760
-0.077964403 0.078111902 0.032403301 4294901760
-0.077522002 0.077449597 0.032240201 4294901760
-0.077900603 0.079222202 0.033494301 4294901760
-0.073885202 0.168062 -0.024913499 4294901760
-0.073507302 0.167932 -0.02421 4294901760
-0.0736278 0.166394 -0.021187801 4294901760
-0.073658101 0.179653 -0.050267 4294901760
-0.073186897 0.169494 -0.0275627 4294901760
-0.074012198 0.15523399 0.0070319902 4294901760
-0.073349699 0.155424 0.00143431 4294901760
-0.073386103 0.175337 -0.0425747 4294901760
-0.073540702 0.17558999 -0.043148901 4294901760
-0.073272698 0.155752 0.00064798602 4294901760
-0.0738369 0.155002 0.0033064601 4294901760
-0.073502399 0.165998 -0.020266199 4294901760
-0.073891602 0.117787 0.0526575 4294901760
-0.073977903 0.120152 0.053277001 4294901760
-0.0732885 0.122818 0.053399 4294901760
-0.073326699 0.12624501 0.0527476 4294901760
-0.073998101 0.125898 0.052840501 4294901760
-0.0737767 0.134764 0.0504351 4294901760
-0.0736297 0.135628 0.050011199 4294901760
-0.073459603 0.138449 0.0484678 4294901760
-0.0738969 0.140615 0.0472374 4294901760
-0.073636502 0.14500199 0.043936402 4294901760
-0.073090598 0.121378 0.053429902 4294901760
-0.073063798 0.121953 0.053406101 4294901760
-0.073203497 0.123676 0.0532635 4294901760
-0.073247299 0.127084 0.052478801 4294901760
-0.0731152 0.14277101 0.045708001 4294901760
-0.073255502 0.15484101 0.0277218 4294901760
-0.073282301 0.155985 0.0166901 4294901760
-0.073675402 0.15518899 0.0052580601 4294901760
-0.073331803 0.165139 -0.0183599 4294901760
-0.073599704 0.16562501 -0.0195556 4294901760
-0.073394001 0.13695499 0.049268499 4294901760
-0.073214903 0.155578 0.0245465 4294901760
-0.073675901 0.155955 0.017714201 4294901760
-0.073456697 0.15730201 -0.0039655701 4294901760
-0.073899403 0.12867001 0.052360199 4294901760
-0.073525101 0.12909199 0.0521251 4294901760
-0.073476098 0.130357 0.051753599 4294901760
-0.073454097 0.13239001 0.051148899 4294901760
-0.073846497 0.132624 0.051287599 4294901760
-0.073119499 0.13656101 0.049354099 4294901760
-0.073091999 0.136535 0.049353801 4294901760
-0.073845796 0.1313 0.0517212 4294901760
-0.073311999 0.18035001 -0.053366002 4294901760
-0.073665701 0.155626 0.00054799602 4294901760
-0.073916398 0.17421 -0.040179301 4294901760
-0.0735569 0.178094 -0.047527399 4294901760
-0.0732897 0.155469 0.0250785 4294901760
-0.073585398 0.15394001 0.030523499 4294901760
-0.073944099 0.156443 -0.0023954101 4294901760
-0.073915601 0.154277 0.029274199 4294901760
-0.073986501 0.155654 0.0111417 4294901760
-0.073402099 0.171326 -0.032889701 4294901760
-0.073778301 0.170995 -0.032281999 4294901760
-0.073449299 0.177342 -0.046402901 4294901760
-0.073463999 0.180392 -0.054017 4294901760
-0.0735844 0.174237 -0.0402078 4294901760
-0.073050797 0.173619 -0.038997602 4294901760
-0.0733492 0.15262499 0.033759899 4294901760
-0.073087901 0.153291 0.032447301 4294901760
-0.073281102 0.172756 -0.036770999 4294901760
-0.073885404 0.15599599 0.014617 4294901760
-0.073428199 0.156004 0.0138947 4294901760
-0.073360801 0.155999 0.0137636 4294901760
-0.073948801 0.155901 0.019928001 4294901760
-0.073974103 0.15986399 -0.0093397396 4294901760
-0.073210299 0.15957101 -0.0080005899 4294901760
-0.073213197 0.15963501 -0.0081132399 4294901760
-0.0739889 0.15907 -0.0080302795 4294901760
-0.073466197 0.15535501 0.0077054398 4294901760
-0.073626503 0.170526 -0.0305891 4294901760
-0.0735837 0.170829 -0.031547401 4294901760
-0.073992997 0.155736 0.011924 4294901760
-0.073188901 0.155331 0.0067475601 4294901760
-0.073911898 0.168276 -0.025408 4294901760
-0.073163703 0.155865 0.021625901 4294901760
-0.073066004 0.16124199 -0.0107769 4294901760
-0.073466398 0.170808 -0.031376701 4294901760
-0.073441699 0.17201801 -0.034981299 4294901760
-0.073969997 0.14990801 0.038143799 4294901760
-0.073060699 0.150748 0.0369935 4294901760
-0.073160999 0.150461 0.0374179 4294901760
-0.073362298 0.15113799 0.0363416 4294901760
-0.073918402 0.169177 -0.027539801 4294901760
-0.073570803 0.16136201 -0.0114625 4294901760
-0.073852703 0.15576699 0.022387899 4294901760
-0.073968597 0.15494201 0.027241601 4294901760
-0.073861197 0.14678299 0.042252202 4294901760
-0.0735223 0.149422 0.038958799 4294901760
-0.073225498 0.156431 -0.00123146 4294901760
-0.073748298 0.15615 -0.0011533001 4294901760
-0.0738547 0.178666 -0.048362099 4294901760
-0.073620498 0.178681 -0.048390701 4294901760
-0.073490299 0.169173 -0.027068701 4294901760
-0.073210999 0.15601 0.0148642 4294901760
-0.0730884 0.17908899 -0.049106602 4294901760
-0.0739666 0.160583 -0.0105262 4294901760
-0.073956802 0.15841 -0.00685653 4294901760
-0.073213004 0.135241 0.0500242 4294901760
-0.073475897 0.084834598 0.039567798 4294901760
-0.073455997 0.0853201 0.039716199 4294901760
-0.073696598 0.0868477 0.039977498 4294901760
-0.073788598 0.16188499 -0.0126261 4294901760
-0.073494002 0.13450199 0.050446201 4294901760
-0.073590897 0.13473 0.050382301 4294901760
-0.073621601 0.082233399 0.038664199 4294901760
-0.0732418 0.076802403 0.036223099 4294901760
-0.073263399 0.0804286 0.038212702 4294901760
-0.073752798 0.083593003 0.039026301 4294901760
-0.073655501 0.087926596 0.040210102 4294901760
-0.073943898 0.162645 -0.0142108 4294901760
-0.074004702 0.088780999 0.040108901 4294901760
-0.073418401 0.094349399 0.040257201 4294901760
-0.073373497 0.094170198 0.040329199 4294901760
-0.073909499 0.090846099 0.0401931 4294901760
-0.073524997 0.080902003 0.0382188 4294901760
-0.073759802 0.081301697 0.038217399 4294901760
-0.073080197 0.0798188 0.0380367 4294901760
-0.073894002 0.100228 0.037845001 4294901760
-0.073420003 0.094793901 0.040160101 4294901760
-0.073112503 0.086371496 0.040204 4294901760
-0.073934197 0.081291802 0.038077399 4294901760
-0.073326796 0.097019598 0.039592098 4294901760
-0.073247999 0.098995797 0.0388657 4294901760
-0.073144898 0.100152 0.038375299 4294901760
-0.073984601 0.085528798 0.039457299 4294901760
-0.073550798 0.099236697 0.038538601 4294901760
-0.073184699 0.077992402 0.036950499 4294901760
-0.073103502 0.076896504 0.0364017 4294901760
-0.0737148 0.080147699 0.0377304 4294901760
-0.073183499 0.10063 0.0381178 4294901760
-0.073756903 0.17887001 -0.0543941 4294901760
-0.073357202 0.178013 -0.054342698 4294901760
-0.074014798 0.178195 -0.053932801 4294901760
-0.073550798 0.174816 -0.051572502 4294901760
-0.073865198 0.174281 -0.050787602 4294901760
-0.073693097 0.17356201 -0.050199699 4294901760
-0.073776998 0.17021801 -0.046278201 4294901760
-0.073252603 0.169737 -0.046450701 4294901760
-0.073245503 0.16866501 -0.045256302 4294901760
-0.073365197 0.169366 -0.0458657 4294901760
-0.0735543 0.16953599 -0.045790199 4294901760
-0.073178999 0.167366 -0.043805599 4294901760
-0.0737404 0.16687 -0.042339899 4294901760
-0.0737729 0.166154 -0.041374002 4294901760
-0.074000999 0.166852 -0.041940901 4294901760
-0.0738765 0.16591901 -0.040879201 4294901760
-0.073325299 0.164463 -0.040088899 4294901760
-0.073245399 0.163559 -0.0390817 4294901760
-0.073942997 0.164395 -0.038730498 4294901760
-0.073935598 0.163368 -0.0373463 4294901760
-0.073451102 0.16285899 -0.037728399 4294901760
-0.074015401 0.16377901 -0.037809301 4294901760
-0.073444098 0.16238201 -0.037071299 4294901760
-0.073958501 0.16208 -0.035362199 4294901760
-0.073556997 0.10474 0.0369674 4294901760
-0.0734917 0.102029 0.037431099 4294901760
-0.073728196 0.101287 0.0375285 4294901760
-0.0734713 0.108096 0.0378257 4294901760
-0.0739078 0.102526 0.037079498 4294901760
-0.073140502 0.17991 -0.054579001 4294901760
-0.073373802 0.106363 0.037134498 4294901760
-0.073995501 0.108319 0.038143601 4294901760
-0.073268302 0.064781003 0.0154509 4294901760
-0.073692098 0.065352403 0.016748801 4294901760
-0.073692001 0.065227903 0.015937701 4294901760
-0.074012101 0.066226497 0.018198499 4294901760
-0.073138297 0.0745003 0.034770701 4294901760
-0.0737435 0.109176 0.040566601 4294901760
-0.0732935 0.064805701 0.0164626 4294901760
-0.073560297 0.065385804 0.0174552 4294901760
-0.073388599 0.065297402 0.017849101 4294901760
-0.073314898 0.065744199 0.0190848 4294901760
-0.0736937 0.066185899 0.018987801 4294901760
-0.073594101 0.066453896 0.0197386 4294901760
-0.0731754 0.109196 0.040330201 4294901760
-0.0737179 0.109576 0.042180799 4294901760
-0.073315904 0.109297 0.0407313 4294901760
-0.073064297 0.109521 0.041333199 4294901760
-0.073335901 0.109755 0.042475201 4294901760
-0.074039802 0.110813 0.045488901 4294901760
-0.073414601 0.066284701 0.019801499 4294901760
-0.073496297 0.067224003 0.0218965 4294901760
-0.0734611 0.067613102 0.023259999 4294901760
-0.073925301 0.067625403 0.0220396 4294901760
-0.073367096 0.110463 0.044576298 4294901760
-0.073262699 0.110762 0.0453947 4294901760
-0.073170297 0.068018697 0.025191201 4294901760
-0.0734898 0.067828901 0.0238917 4294901760
-0.073990397 0.068800703 0.025828101 4294901760
-0.0740235 0.0694675 0.0272079 4294901760
-0.074006997 0.0700619 0.028378 4294901760
-0.073896497 0.112961 0.049408998 4294901760
-0.073254503 0.0686059 0.0266953 4294901760
-0.073111497 0.069111302 0.027951499 4294901760
-0.073049597 0.070067704 0.029655199 4294901760
-0.073516101 0.073710904 0.033753499 4294901760
-0.073366299 0.073629603 0.033833001 4294901760
-0.073468499 0.074281 0.0342778 4294901760
-0.069612801 0.15531801 0.0053539099 4294901760
-0.069469698 0.169928 -0.029693101 4294901760
-0.069168098 0.169888 -0.029936999 4294901760
-0.069905803 0.169561 -0.0281257 4294901760
-0.069998302 0.169156 -0.0270059 4294901760
-0.069733202 0.16896901 -0.0267442 4294901760
-0.069235504 0.169038 -0.027479099 4294901760
-0.069828004 0.170127 -0.0299285 4294901760
-0.069055803 0.180518 -0.053703301 4294901760
-0.069603197 0.170406 -0.0311494 4294901760
-0.069537699 0.091275901 0.0419751 4294901760
-0.069585502 0.093091801 0.042059399 4294901760
-0.069745302 0.094604202 0.042043202 4294901760
-0.069732599 0.098406702 0.040961798 4294901760
-0.069644399 0.103491 0.038630001 4294901760
-0.069579303 0.104609 0.038125802 4294901760
-0.069385402 0.107895 0.037250899 4294901760
-0.069610998 0.108262 0.037326299 4294901760
-0.069565304 0.120052 0.053100199 4294901760
-0.069270499 0.122616 0.0530072 4294901760
-0.069072202 0.091111302 0.0420947 4294901760
-0.069170199 0.092666402 0.042124402 4294901760
-0.069217198 0.094943501 0.042103302 4294901760
-0.069153398 0.106144 0.0376908 4294901760
-0.069827199 0.15537 0.0061003999 4294901760
-0.0698613 0.157252 -0.00289604 4294901760
-0.069077298 0.079800703 0.040512402 4294901760
-0.069227397 0.16802301 -0.0248101 4294901760
-0.069816999 0.167781 -0.0238172 4294901760
-0.069637999 0.16694701 -0.021976801 4294901760
-0.069613799 0.167568 -0.0235037 4294901760
-0.0697354 0.17558201 -0.045823898 4294901760
-0.0699104 0.17757501 -0.048801601 4294901760
-0.069875501 0.155999 0.0139766 4294901760
-0.0697539 0.181164 -0.055241 4294901760
-0.0693077 0.118089 0.0526607 4294901760
-0.069358297 0.126609 0.0516131 4294901760
-0.0694618 0.129163 0.050236098 4294901760
-0.069363803 0.12974299 0.0498024 4294901760
-0.0690789 0.129831 0.049505498 4294901760
-0.069368698 0.132175 0.0486858 4294901760
-0.069319397 0.13117599 0.0490118 4294901760
-0.0696638 0.133045 0.048674699 4294901760
-0.069797799 0.134995 0.048223 4294901760
-0.069899298 0.134754 0.048361599 4294901760
-0.0699789 0.136437 0.047812399 4294901760
-0.069169797 0.13240699 0.048411399 4294901760
-0.069045603 0.131749 0.048549 4294901760
-0.069136202 0.134703 0.0476509 4294901760
-0.069387801 0.134618 0.047944002 4294901760
-0.069453202 0.13654201 0.047359299 4294901760
-0.069306098 0.135506 0.047562201 4294901760
-0.069459498 0.13851599 0.046662401 4294901760
-0.069371998 0.138524 0.046590999 4294901760
-0.0694649 0.13960201 0.046266198 4294901760
-0.069457099 0.142949 0.044493198 4294901760
-0.0693831 0.142719 0.044607401 4294901760
-0.069361202 0.142363 0.044812001 4294901760
-0.0697762 0.124943 0.052502301 4294901760
-0.069901101 0.099253401 0.040580701 4294901760
-0.070012599 0.100233 0.040119302 4294901760
-0.069141097 0.122826 0.052947901 4294901760
-0.069202103 0.109858 0.039086901 4294901760
-0.069875203 0.18097 -0.0568153 4294901760
-0.069731899 0.156141 0.0189244 4294901760
-0.069088802 0.15001699 0.0384221 4294901760
-0.069729999 0.15536401 0.00379199 4294901760
-0.069853097 0.179125 -0.0510302 4294901760
-0.0697347 0.159927 -0.0079397699 4294901760
-0.069229499 0.15989 -0.0082579302 4294901760
-0.069659203 0.155984 0.0235932 4294901760
-0.069508098 0.156095 0.021668101 4294901760
-0.069214799 0.17659 -0.048017301 4294901760
-0.0695097 0.171877 -0.037113901 4294901760
-0.069519997 0.16057999 -0.0092632696 4294901760
-0.069772899 0.160449 -0.0088732503 4294901760
-0.069398098 0.14848199 0.040128499 4294901760
-0.069476597 0.148647 0.039968401 4294901760
-0.069737501 0.171388 -0.0345545 4294901760
-0.069744103 0.155903 0.024173699 4294901760
-0.069056898 0.151788 0.035932399 4294901760
-0.069425099 0.15087099 0.0373157 4294901760
-0.069849297 0.150263 0.0381497 4294901760
-0.069182903 0.16255701 -0.0130047 4294901760
-0.069813803 0.161544 -0.0107854 4294901760
-0.069084696 0.161726 -0.0115948 4294901760
-0.069252402 0.155293 0.0056972699 4294901760
-0.0690457 0.155765 0.010821 4294901760
-0.0696114 0.17832001 -0.050131999 4294901760
-0.069853596 0.154993 0.0280257 4294901760
-0.069273397 0.156242 -0.0010108 4294901760
-0.069978401 0.173801 -0.041875798 4294901760
-0.069217198 0.162797 -0.0134311 4294901760
-0.069715597 0.151522 0.036330499 4294901760
-0.069355898 0.156086 0.0155531 4294901760
-0.070019998 0.154319 0.0302842 4294901760
-0.069619097 0.154495 0.029648099 4294901760
-0.069903903 0.15448 0.029713299 4294901760
-0.069223598 0.164278 -0.0164774 4294901760
-0.069430001 0.175087 -0.045213401 4294901760
-0.069130898 0.15593401 0.0128811 4294901760
-0.069126099 0.17276099 -0.040221602 4294901760
-0.069826998 0.17441501 -0.043529999 4294901760
-0.069702499 0.17425101 -0.0433161 4294901760
-0.069954701 0.156238 -0.000190701 4294901760
-0.0696567 0.15611801 0.016560201 4294901760
-0.069131501 0.172391 -0.039310802 4294901760
-0.069441497 0.165047 -0.017919101 4294901760
-0.069352999 0.155625 0.00119696 4294901760
-0.069078498 0.15546 0.00151217 4294901760
-0.069790699 0.155752 0.00126089 4294901760
-0.069349498 0.15374599 0.031816699 4294901760
-0.069767401 0.15561999 0.0091300998 4294901760
-0.0691901 0.120837 0.053047299 4294901760
-0.069152497 0.180961 -0.0547865 4294901760
-0.0692975 0.149367 0.0391807 4294901760
-0.069660701 0.16513699 -0.017926799 4294901760
-0.069591299 0.152876 0.033837002 4294901760
-0.0693691 0.158714 -0.0059838402 4294901760
-0.069604002 0.15871701 -0.0058595398 4294901760
-0.069106102 0.158821 -0.00650211 4294901760
-0.069755197 0.159042 -0.00653189 4294901760
-0.069107004 0.159513 -0.0076834098 4294901760
-0.069998004 0.16607299 -0.0198112 4294901760
-0.069990903 0.101165 0.0396978 4294901760
-0.069497697 0.0869397 0.042298399 4294901760
-0.069214098 0.085425302 0.0423248 4294901760
-0.069981001 0.101763 0.039388102 4294901760
-0.0690502 0.084630802 0.042271499 4294901760
-0.0693703 0.087831199 0.042359699 4294901760
-0.069555096 0.079930097 0.040315799 4294901760
-0.069708802 0.082105197 0.041056301 4294901760
-0.0693857 0.083917402 0.041823499 4294901760
-0.069968998 0.0856359 0.041851401 4294901760
-0.0699386 0.0850752 0.041734301 4294901760
-0.0693729 0.085005201 0.042126399 4294901760
-0.0694139 0.0849839 0.042091701 4294901760
-0.069632702 0.086346097 0.042161599 4294901760
-0.069152698 0.0813113 0.041099701 4294901760
-0.069290601 0.108763 0.037647299 4294901760
-0.069725499 0.17757601 -0.057135299 4294901760
-0.069870703 0.179309 -0.057545599 4294901760
-0.069365002 0.176341 -0.0567916 4294901760
-0.0690483 0.173563 -0.0554763 4294901760
-0.069407403 0.17218301 -0.054173801 4294901760
-0.069207698 0.17286 -0.054847699 4294901760
-0.070019498 0.174459 -0.0547809 4294901760
-0.069031298 0.170486 -0.0538215 4294901760
-0.069555297 0.172032 -0.053881001 4294901760
-0.069399603 0.17092501 -0.053484298 4294901760
-0.0696055 0.109727 0.038918599 4294901760
-0.069754601 0.14514101 0.043070801 4294901760
-0.069817901 0.144649 0.043450199 4294901760
-0.069168396 0.088956498 0.042369898 4294901760
-0.069135599 0.17890701 -0.058098599 4294901760
-0.069424301 0.180347 -0.057811201 4294901760
-0.069889396 0.109722 0.0392843 4294901760
-0.069898397 0.109619 0.038797401 4294901760
-0.069476597 0.113123 0.048969101 4294901760
-0.069646403 0.114327 0.050570399 4294901760
-0.069558002 0.061767198 0.015371 4294901760
-0.069576897 0.110056 0.0401637 4294901760
-0.069382302 0.110128 0.040186498 4294901760
-0.069653898 0.110763 0.042869899 4294901760
-0.069878399 0.0623658 0.0182456 4294901760
-0.069819503 0.062252399 0.017872 4294901760
-0.069233999 0.11102 0.0432215 4294901760
-0.069783799 0.111757 0.0463566 4294901760
-0.069989301 0.111395 0.045378301 4294901760
-0.069391802 0.063747399 0.0220905 4294901760
-0.0698805 0.063878201 0.021581 4294901760
-0.069292903 0.112038 0.046504699 4294901760
-0.0693627 0.112545 0.0477551 4294901760
-0.070004098 0.113633 0.0499424 4294901760
-0.069699503 0.113339 0.0494144 4294901760
-0.069898702 0.11409 0.050455801 4294901760
-0.0693831 0.063926399 0.0224314 4294901760
-0.069650903 0.064804398 0.023447501 4294901760
-0.0691531 0.064868599 0.024258301 4294901760
-0.069822602 0.0653622 0.024222299 4294901760
-0.069946103 0.066341303 0.026196299 4294901760
-0.0691441 0.114023 0.049988601 4294901760
-0.069542602 0.0664258 0.026935199 4294901760
-0.069625102 0.066690102 0.0273841 4294901760
-0.0696062 0.0674401 0.029057501 4294901760
-0.069918402 0.068169802 0.030058799 4294901760
-0.069403999 0.068347998 0.030854801 4294901760
-0.069340102 0.067919202 0.0302062 4294901760
-0.069088504 0.068919003 0.032081001 4294901760
-0.069121897 0.069301203 0.032584801 4294901760
-0.069995798 0.0725137 0.0356723 4294901760
-0.070017502 0.073819101 0.036707502 4294901760
-0.069079198 0.0699194 0.033411399 4294901760
-0.069280103 0.072112598 0.035774998 4294901760
-0.069042899 0.073573403 0.036998201 4294901760
-0.069414303 0.072697297 0.036211301 4294901760
-0.069601201 0.0750646 0.037629299 4294901760
-0.069287598 0.075343698 0.037929401 4294901760
-0.0697596 0.077346496 0.038842 4294901760
-0.069099098 0.076764002 0.038856801 4294901760
-0.065951496 0.18044899 -0.0579095 4294901760
-0.065993398 0.17016201 -0.039243899 4294901760
-0.065490797 0.169554 -0.038943201 4294901760
-0.065978698 0.169807 -0.037721202 4294901760
-0.0653667 0.159741 -0.0138875 4294901760
-0.065836199 0.169754 -0.038016401 4294901760
-0.065383002 0.158207 -0.0110215 4294901760
-0.065269001 0.16806599 -0.033354599 4294901760
-0.065745398 0.169599 -0.0377036 4294901760
-0.065691501 0.080823898 0.0426942 4294901760
-0.065696999 0.082322702 0.043352999 4294901760
-0.0659701 0.085933797 0.044165 4294901760
-0.065548502 0.086603798 0.044399802 4294901760
-0.066015899 0.086692102 0.0442646 4294901760
-0.065339498 0.089069702 0.044509899 4294901760
-0.065787099 0.089338101 0.044307798 4294901760
-0.0653271 0.094903201 0.042702898 4294901760
-0.065433197 0.096230201 0.042289 4294901760
-0.065652102 0.100992 0.041541401 4294901760
-0.065564699 0.101332 0.041494898 4294901760
-0.065468803 0.105248 0.0395572 4294901760
-0.065779999 0.106062 0.0390159 4294901760
-0.065259501 0.089663103 0.044443101 4294901760
-0.065105997 0.090261698 0.0443951 4294901760
-0.065283298 0.107663 0.0384099 4294901760
-0.065696098 0.170313 -0.040768798 4294901760
-0.065070301 0.078617103 0.041790999 4294901760
-0.065539896 0.171313 -0.043667998 4294901760
-0.065059997 0.170949 -0.044160899 4294901760
-0.065339901 0.169609 -0.039733499 4294901760
-0.065260701 0.034252401 0.014491 4294901760
-0.065317698 0.14749099 0.0390804 4294901760
-0.065638401 0.14748999 0.039271299 4294901760
-0.065344498 0.16800401 -0.032858498 4294901760
-0.065623701 0.168386 -0.0332806 4294901760
-0.065445997 0.156664 -0.0085308803 4294901760
-0.0652683 0.178819 -0.0603825 4294901760
-0.065814897 0.150059 0.037701499 4294901760
-0.066016801 0.117716 0.050293501 4294901760
-0.066006199 0.116027 0.0488213 4294901760
-0.065607898 0.117893 0.049885601 4294901760
-0.065394402 0.12015 0.050465599 4294901760
-0.065052003 0.120148 0.049982399 4294901760
-0.065499403 0.121747 0.050461099 4294901760
-0.065586098 0.115415 0.047525201 4294901760
-0.065101899 0.116839 0.048296001 4294901760
-0.065623596 0.115945 0.048175301 4294901760
-0.065977603 0.128125 0.047636401 4294901760
-0.065866403 0.12843201 0.0472265 4294901760
-0.065493099 0.114771 0.046243999 4294901760
-0.065275803 0.115629 0.047289599 4294901760
-0.065421902 0.128653 0.046392102 4294901760
-0.065905698 0.13041499 0.045529399 4294901760
-0.065091498 0.114364 0.044416599 4294901760
-0.065848298 0.13233399 0.043993801 4294901760
-0.065801904 0.13154 0.0445088 4294901760
-0.065237202 0.131072 0.043882899 4294901760
-0.065629698 0.13294999 0.043290701 4294901760
-0.065555401 0.133827 0.042721801 4294901760
-0.065370902 0.13565899 0.042073999 4294901760
-0.065420903 0.135968 0.042134501 4294901760
-0.065779403 0.13944399 0.042298298 4294901760
-0.065995596 0.138271 0.042828001 4294901760
-0.065993398 0.139552 0.042615701 4294901760
-0.065855503 0.142331 0.041786399 4294901760
-0.065972097 0.144951 0.040820301 4294901760
-0.065381303 0.14460599 0.040380199 4294901760
-0.0652605 0.112875 0.041318402 4294901760
-0.065083601 0.13484401 0.041620601 4294901760
-0.065130502 0.134287 0.041812599 4294901760
-0.065422803 0.138211 0.041845798 4294901760
-0.065495998 0.142005 0.041351698 4294901760
-0.065379404 0.14166 0.041275401 4294901760
-0.065664098 0.14540701 0.040371001 4294901760
-0.065494202 0.111977 0.0395119 4294901760
-0.065042302 0.112537 0.040109701 4294901760
-0.065089598 0.142335 0.040665898 4294901760
-0.065127201 0.145063 0.039965 4294901760
-0.065862097 0.147277 0.039551601 4294901760
-0.065999299 0.15528999 0.0080344398 4294901760
-0.065271102 0.154819 -0.00584163 4294901760
-0.065759704 0.161882 -0.0164071 4294901760
-0.065486699 0.16133399 -0.016093099 4294901760
-0.065841101 0.15429699 -0.0026698201 4294901760
-0.065979697 0.15583 0.0127249 4294901760
-0.065627001 0.112152 0.040299799 4294901760
-0.065046601 0.162752 -0.019331099 4294901760
-0.065132998 0.16296799 -0.019574299 4294901760
-0.065677904 0.177077 -0.052374199 4294901760
-0.065943703 0.173425 -0.0470904 4294901760
-0.065320998 0.154302 0.0304091 4294901760
-0.065368697 0.15580501 0.012628 4294901760
-0.065375201 0.175063 -0.050351899 4294901760
-0.065063499 0.172305 -0.0468188 4294901760
-0.065624803 0.153879 0.0315651 4294901760
-0.065538198 0.16386899 -0.020478601 4294901760
-0.065787002 0.163505 -0.0191937 4294901760
-0.065652899 0.175698 -0.050650202 4294901760
-0.0651839 0.155118 -0.00664831 4294901760
-0.065311097 0.152472 0.0348 4294901760
-0.065635197 0.179297 -0.055304501 4294901760
-0.065462902 0.164143 -0.021435 4294901760
-0.065792501 0.173738 -0.047812399 4294901760
-0.065301202 0.15607999 0.018240999 4294901760
-0.065497197 0.157969 -0.0103249 4294901760
-0.065498501 0.17865001 -0.054587401 4294901760
-0.0652081 0.16551501 -0.025634101 4294901760
-0.065250203 0.165178 -0.0246756 4294901760
-0.0659713 0.165334 -0.023248401 4294901760
-0.065541103 0.15136699 0.0363294 4294901760
-0.065409601 0.1561 0.0191212 4294901760
-0.065042198 0.15607201 0.018704901 4294901760
-0.0659132 0.1561 0.021617001 4294901760
-0.065949701 0.155449 0.0263892 4294901760
-0.065314099 0.15526401 0.0269967 4294901760
-0.065809801 0.15519001 -0.0051988601 4294901760
-0.065287001 0.16620301 -0.0271872 4294901760
-0.066013902 0.166077 -0.025217099 4294901760
-0.065139502 0.155834 0.024134301 4294901760
-0.0660308 0.155633 0.0255774 4294901760
-0.065931603 0.15408 0.000363767 4294901760
-0.065254003 0.156113 0.0220773 4294901760
-0.065167397 0.178895 -0.0553509 4294901760
-0.0658838 0.16009399 -0.013395 4294901760
-0.065356202 0.167592 -0.031362899 4294901760
-0.065736301 0.167513 -0.0298423 4294901760
-0.065880902 0.155633 -0.0059501799 4294901760
-0.065994598 0.167346 -0.0286752 4294901760
-0.065726198 0.039271701 0.036400799 4294901760
-0.065881297 0.038904399 0.036424302 4294901760
-0.065291397 0.17395 -0.060364999 4294901760
-0.065956198 0.173969 -0.059660401 4294901760
-0.066036098 0.17550901 -0.059978001 4294901760
-0.065341301 0.039589599 0.0310094 4294901760
-0.0658696 0.17497499 -0.060035098 4294901760
-0.065083101 0.038446601 0.027476801 4294901760
-0.065710597 0.038460702 0.0288362 4294901760
-0.065576203 0.0400941 0.035666801 4294901760
-0.065215297 0.039886501 0.0305779 4294901760
-0.065442197 0.035541799 0.0278714 4294901760
-0.065862499 0.0354915 0.0371239 4294901760
-0.065715604 0.037789401 0.037971701 4294901760
-0.065784298 0.0395035 0.035790399 4294901760
-0.065054499 0.039174199 0.038260601 4294901760
-0.065098003 0.040139999 0.031199001 4294901760
-0.065439098 0.0394115 0.0299937 4294901760
-0.065189697 0.039856199 0.0324958 4294901760
-0.065908097 0.038642898 0.0326325 4294901760
-0.065577999 0.040266499 0.034441002 4294901760
-0.065418303 0.040613402 0.035201602 4294901760
-0.065499701 0.0403606 0.035389099 4294901760
-0.065411098 0.036938701 0.0156914 4294901760
-0.065323196 0.039013602 0.0146184 4294901760
-0.065800101 0.038839299 0.031353399 4294901760
-0.065953404 0.038682699 0.030832199 4294901760
-0.065133497 0.037317201 0.0265576 4294901760
-0.065150604 0.040902499 0.033370301 4294901760
-0.065402001 0.153918 0.00094477599 4294901760
-0.0657176 0.15467601 0.00410259 4294901760
-0.0653437 0.17726 -0.060607102 4294901760
-0.065465897 0.155084 0.0068384898 4294901760
-0.065547504 0.154174 0.00195132 4294901760
-0.065686204 0.179599 -0.0600647 4294901760
-0.065731399 0.113283 0.0434804 4294901760
-0.065331697 0.080067098 0.042493202 4294901760
-0.065128297 0.038019501 0.038985401 4294901760
-0.065304503 0.177726 -0.060641199 4294901760
-0.066006497 0.059943002 0.0151538 4294901760
-0.0656555 0.060721099 0.018703001 4294901760
-0.065243497 0.0603927 0.0180656 4294901760
-0.065667599 0.060846701 0.0192228 4294901760
-0.065364301 0.060718101 0.019175099 4294901760
-0.065445803 0.060971498 0.019924 4294901760
-0.065222502 0.061354399 0.021209 4294901760
-0.065969899 0.0615656 0.021010101 4294901760
-0.065068796 0.0613437 0.021312799 4294901760
-0.065752998 0.062799603 0.0241447 4294901760
-0.066035703 0.063641898 0.0254979 4294901760
-0.065545604 0.063614897 0.025843101 4294901760
-0.065718502 0.065873399 0.0301739 4294901760
-0.065613903 0.034230601 0.01413 4294901760
-0.065445997 0.065526702 0.0297767 4294901760
-0.065971702 0.067185201 0.032173499 4294901760
-0.0658779 0.070041001 0.0355689 4294901760
-0.065148398 0.034559399 0.0152773 4294901760
-0.065145999 0.072646201 0.038174 4294901760
-0.065382197 0.076375 0.040340401 4294901760
-0.065465704 0.0780093 0.041278001 4294901760
-0.065582797 0.077431597 0.040865902 4294901760
-0.065944701 0.078411803 0.0413174 4294901760
-0.065264098 0.180289 -0.0590996 4294901760
-0.0655443 0.034857899 0.0287909 4294901760
-0.065508701 0.034769598 0.0291078 4294901760
-0.065238699 0.035616599 0.0273683 4294901760
-0.0652899 0.0346664 0.029271601 4294901760
-0.065904699 0.0349942 0.0342534 4294901760
-0.065467402 0.034749199 0.033427998 4294901760
-0.065951802 0.0351891 0.035914999 4294901760
-0.065819703 0.034907602 0.034719899 4294901760
-0.065652803 0.034888901 0.035471 4294901760
-0.061990201 0.15137801 0.035422198 4294901760
-0.061944202 0.045722902 0.0331081 4294901760
-0.061864201 0.076893702 0.041886199 4294901760
-0.061841998 0.078606799 0.042413201 4294901760
-0.061420199 0.077482902 0.0421426 4294901760
-0.0619228 0.079057902 0.0425447 4294901760
-0.061436199 0.080866203 0.043251399 4294901760
-0.0620654 0.083464801 0.044120599 4294901760
-0.061732601 0.084671803 0.044307899 4294901760
-0.0620226 0.084741801 0.0443606 4294901760
-0.061375599 0.088633299 0.045395501 4294901760
-0.061468199 0.091128603 0.045263 4294901760
-0.0616665 0.092127897 0.045069601 4294901760
-0.0613681 0.094276004 0.044617198 4294901760
-0.061527599 0.100634 0.0423619 4294901760
-0.061528601 0.102594 0.041739799 4294901760
-0.061903801 0.105534 0.040221099 4294901760
-0.0617886 0.108026 0.038679902 4294901760
-0.061450802 0.107445 0.039055102 4294901760
-0.061173901 0.076288499 0.0418857 4294901760
-0.0612152 0.083874799 0.044064 4294901760
-0.061094102 0.084866099 0.044309299 4294901760
-0.061230801 0.101741 0.042096701 4294901760
-0.0620501 0.044539899 0.030063899 4294901760
-0.061650898 0.045805 0.037324298 4294901760
-0.061273001 0.142969 -0.00522125 4294901760
-0.061989501 0.120733 0.043731399 4294901760
-0.0619931 0.121317 0.043900698 4294901760
-0.0619113 0.11986 0.043245699 4294901760
-0.061660498 0.121831 0.043416999 4294901760
-0.061822802 0.122031 0.043715101 4294901760
-0.061314698 0.122241 0.0429275 4294901760
-0.061595 0.121385 0.043202501 4294901760
-0.0613789 0.122965 0.043074999 4294901760
-0.061792601 0.12418 0.0435936 4294901760
-0.061959799 0.12575901 0.043176699 4294901760
-0.061703999 0.118061 0.041679502 4294901760
-0.061679501 0.117863 0.041473001 4294901760
-0.0619177 0.117047 0.041107301 4294901760
-0.061913598 0.11708 0.041130502 4294901760
-0.061569698 0.118787 0.041999601 4294901760
-0.0613226 0.118207 0.041249301 4294901760
-0.061206501 0.125995 0.042201299 4294901760
-0.0614115 0.12686101 0.042034201 4294901760
-0.061663799 0.12774 0.041685101 4294901760
-0.061900102 0.129545 0.040620599 4294901760
-0.061824601 0.12860601 0.041272599 4294901760
-0.061750501 0.115072 0.038570199 4294901760
-0.061187599 0.117714 0.040698599 4294901760
-0.061200701 0.129471 0.0401938 4294901760
-0.062081199 0.131433 0.039678302 4294901760
-0.061581101 0.13123199 0.039470199 4294901760
-0.0615099 0.13182101 0.039127301 4294901760
-0.061361998 0.147856 0.037078101 4294901760
-0.061689399 0.110332 0.037352499 4294901760
-0.0616243 0.114404 0.037754498 4294901760
-0.0614026 0.115705 0.0388995 4294901760
-0.061519101 0.133406 0.038175698 4294901760
-0.061113399 0.132726 0.038415201 4294901760
-0.062026601 0.144263 0.037553199 4294901760
-0.0619759 0.145769 0.0376045 4294901760
-0.0611303 0.13532799 0.036485501 4294901760
-0.061726 0.137145 0.035767201 4294901760
-0.061688099 0.13807499 0.0353061 4294901760
-0.0620271 0.139469 0.036029302 4294901760
-0.061436299 0.14156599 0.036586899 4294901760
-0.061368398 0.141587 0.036542099 4294901760
-0.061176401 0.144714 0.0371961 4294901760
-0.061428498 0.151233 0.0353585 4294901760
